-2.250700000000000145e+01 -2.959299999999999820e+00 5.982400000000000162e+00 2.115305999999999909e+00 -1.011807493928271323e-01
-2.250700000000000145e+01 -2.959299999999999820e+00 6.847599999999999909e+00 2.465342000000000144e+00 -9.982968739926592616e-02
-2.250100000000000122e+01 1.846999999999999886e+01 7.640500000000000291e+00 -5.914334000000000202e+00 -1.285060939149637593e-01
-2.250100000000000122e+01 -4.987699999999999911e-01 -1.723000000000000043e+01 -1.465508999999999951e+00 3.902465353081704391e-01
-2.249899999999999878e+01 1.893799999999999883e+01 7.213000000000000078e+00 -5.232312999999999548e-01 -1.622647212376334691e-01
-2.249500000000000099e+01 1.643100000000000094e+01 -1.460199999999999942e+00 6.658566000000000207e-01 1.167808999111214358e-01
-2.247400000000000020e+01 7.529099999999999682e+00 -1.397300000000000075e+01 2.851951999999999821e+00 3.177291150431162947e-01
-2.247100000000000009e+01 1.899500000000000099e+01 1.309500000000000108e+00 3.511423999999999879e+00 5.057692203037233991e-02
-2.245899999999999963e+01 4.019000000000000128e+00 8.996999999999999886e+00 -4.127260999999999846e+00 -3.499999999999999778e-01
-2.245299999999999940e+01 1.992599999999999838e+01 4.708599999999999675e+00 6.197747999999999813e+00 -1.613399043807816347e-01
-2.245100000000000051e+01 1.230799999999999983e+01 1.421199999999999974e+01 -1.408462000000000103e+00 -1.406969911041232313e-01
-2.244200000000000017e+01 -4.268900000000000361e+00 3.066699999999999982e+00 7.069545999999999886e+00 -2.425682959969421848e-01
-2.242500000000000071e+01 -1.068000000000000060e+00 -1.125699999999999967e+01 9.743900999999999257e+00 3.157751055580334532e-01
-2.241499999999999915e+01 1.683999999999999986e+01 -1.305300000000000082e+01 -3.886286999999999936e-01 1.019603357864229815e-01
-2.241499999999999915e+01 1.683999999999999986e+01 -1.126500000000000057e+01 2.534240000000000048e+00 1.050794009352296748e-01
-2.241499999999999915e+01 1.709400000000000119e+01 -1.215900000000000070e+01 -7.393404000000000309e+00 1.038656173349300771e-01
-2.240800000000000125e+01 4.715600000000000236e+00 -2.072599999999999909e+01 3.985882000000000147e+00 3.908857258789569245e-01
-2.240599999999999881e+01 6.381499999999999950e+00 -2.000300000000000011e+01 1.340414999999999957e+01 3.115340488538912433e-01
-2.240500000000000114e+01 4.264999999999999680e+00 -1.443299999999999983e+01 -2.817299999999999915e+00 3.143586530166838644e-01
-2.240500000000000114e+01 1.575500000000000078e+01 -5.963799999999999990e+00 -3.241408999999999985e+00 1.134384491024168773e-01
-2.240299999999999869e+01 3.408799999999999830e+00 -1.998699999999999832e+01 5.294857999999999620e+00 3.907022468160195605e-01
-2.240099999999999980e+01 1.546799999999999997e+01 -1.396799999999999997e+01 -1.475284000000000040e-01 9.802327912152711265e-02
-2.239499999999999957e+01 2.468999999999999861e+00 9.335100000000000620e+00 5.855887000000000064e+00 -3.499999999999999778e-01
-2.239099999999999824e+01 6.507299999999999862e+00 -1.719099999999999895e+01 1.334840999999999944e+01 3.136669037008671390e-01
-2.238700000000000045e+01 1.047899999999999920e+01 1.320199999999999996e+01 -2.671184999999999832e+01 -1.397940115307704789e-01
-2.236899999999999977e+01 1.585399999999999920e+01 9.713699999999999335e+00 -9.856490000000000862e+00 -1.260934983652172436e-01
-2.236599999999999966e+01 4.850100000000000300e+00 9.272000000000000242e+00 -4.743843000000000032e+00 -3.499999999999999778e-01
-2.236599999999999966e+01 6.041000000000000369e+00 9.935999999999999943e+00 -3.203708999999999918e+00 -3.499999999999999778e-01
-2.234900000000000020e+01 -4.839000000000000412e+00 -1.170100000000000051e+01 2.341350999999999960e+00 9.457718998697332846e-02
-2.234700000000000131e+01 3.961599999999999788e+00 -1.513299999999999912e+01 -3.556753000000000053e+00 3.130097719048153815e-01
-2.234700000000000131e+01 2.532599999999999962e+00 -1.952100000000000080e+01 -1.575409999999999866e-01 3.905638065936136161e-01
-2.233399999999999963e+01 -5.259000000000000341e-01 -1.426099999999999923e+01 2.553316999999999837e+00 3.075603435895825077e-01
-2.233099999999999952e+01 -9.819000000000000838e+00 -1.866999999999999993e+00 3.102418999999999816e+00 -2.387689535212734471e-01
-2.232400000000000162e+01 1.309800000000000075e+01 1.522600000000000087e+01 2.412293000000000076e-01 -1.415108441204623313e-01
-2.232400000000000162e+01 1.479800000000000004e+01 1.522600000000000087e+01 2.486272000000000038e+00 -1.414035497859823243e-01
-2.232400000000000162e+01 -2.945800000000000196e+00 4.159900000000000375e+00 6.769357000000000291e+00 1.688358442814896498e-01
-2.232100000000000151e+01 1.238199999999999967e+01 -1.459699999999999953e+01 8.575188000000000255e-01 3.198740743278000176e-01
-2.232100000000000151e+01 1.408200000000000074e+01 -1.459699999999999953e+01 1.998327000000000020e-01 9.412410631737186395e-02
-2.231500000000000128e+01 -3.025100000000000122e+00 5.223399999999999821e+00 1.893890000000000073e+00 7.620145691350182007e-03
-2.230999999999999872e+01 -6.068699999999999761e+00 -1.087800000000000011e+01 3.097526999999999919e+00 1.151158839008747659e-01
-2.230999999999999872e+01 -6.068699999999999761e+00 -9.938299999999999912e+00 4.401407999999999987e+00 1.270102626865889373e-01
-2.230900000000000105e+01 -5.958000000000000185e+00 -9.141000000000000014e+00 4.626351999999999798e+00 -1.443200707281062645e-01
-2.230099999999999838e+01 1.693700000000000117e+01 -7.801700000000000301e+00 -3.900863999999999887e+00 1.114779898905378375e-01
-2.230099999999999838e+01 1.693700000000000117e+01 -6.862300000000000288e+00 -4.806580000000000297e+00 1.130433640724357591e-01
-2.229700000000000060e+01 -2.740000000000000213e+00 1.111500000000000021e+01 -2.284390000000000143e+01 -1.333449538547821223e-01
-2.229700000000000060e+01 -1.219999999999999973e+00 1.111500000000000021e+01 -6.008879000000000303e+01 -1.341895122236107241e-01
-2.229400000000000048e+01 1.616900000000000004e+00 -1.953900000000000148e+01 -2.616645999999999805e+00 3.903593016859470688e-01
-2.228000000000000114e+01 8.798600000000000421e+00 -1.395500000000000007e+01 2.474813999999999903e-01 3.186076052835283834e-01
-2.227499999999999858e+01 1.942699999999999960e+01 -6.273300000000000542e-01 4.712215000000000154e-01 1.188060065270996890e-01
-2.227499999999999858e+01 1.942699999999999960e+01 4.233299999999999841e-01 -3.780339000000000116e+00 5.146570686522824317e-02
-2.226999999999999957e+01 -8.820100000000000051e+00 -5.391200000000000436e-01 3.371189000000000213e+00 -2.396977526018565230e-01
-2.226800000000000068e+01 -9.634000000000000341e+00 -1.153599999999999959e+00 4.099638999999999811e+00 -2.390009485089652497e-01
-2.226300000000000168e+01 4.936399999999999899e+00 -1.594200000000000017e+01 4.175893000000000299e+00 3.131746913353691264e-01
-2.226300000000000168e+01 4.936399999999999899e+00 -1.454199999999999982e+01 5.091148000000000201e-02 3.149568974061155990e-01
-2.226300000000000168e+01 5.801599999999999646e+00 -1.454199999999999982e+01 4.930558000000000440e+00 3.157903546803414452e-01
-2.225300000000000011e+01 -6.500099999999999767e+00 3.187200000000000033e-01 3.078869999999999862e+01 -2.413806258964819595e-01
-2.223300000000000054e+01 -5.436300000000000132e+00 2.108499999999999819e+00 1.395247999999999955e+01 -2.420499249871186365e-01
-2.223300000000000054e+01 9.800000000000000377e-02 -1.944099999999999895e+01 -1.337566000000000033e+00 3.899794626945338183e-01
-2.223100000000000165e+01 1.805199999999999960e+01 -1.548100000000000032e+00 -2.099454000000000153e+00 1.182475510795239770e-01
-2.223100000000000165e+01 6.017900000000000027e+00 -1.628300000000000125e+01 8.100469000000000364e+00 3.140382100572122193e-01
-2.219900000000000162e+01 6.470200000000000173e+00 1.072000000000000064e+01 -1.361072000000000060e+01 -1.365255395730378407e-01
-2.218299999999999983e+01 1.549399999999999977e+01 -1.420500000000000096e+00 3.569618999999999875e+00 1.166143422490892451e-01
-2.217899999999999849e+01 6.266799999999999926e+00 -1.436899999999999977e+01 3.998203999999999869e+00 3.164345662829444739e-01
-2.217899999999999849e+01 7.203000000000000291e+00 -1.436899999999999977e+01 2.276758000000000060e+00 3.171741374632167654e-01
-2.216900000000000048e+01 1.125799999999999912e+01 -1.343399999999999928e+01 8.213513000000000064e-01 3.202830604773722056e-01
-2.216499999999999915e+01 1.781400000000000006e+01 2.074300000000000033e+00 7.122071000000000041e+00 -1.619453334193767247e-01
-2.215800000000000125e+01 -6.353999999999999648e-01 -1.195700000000000074e+01 4.791496999999999673e+00 3.141729379958825841e-01
-2.215700000000000003e+01 -2.980100000000000193e+00 -1.169500000000000028e+01 5.802719999999999878e+00 3.126035645365291549e-01
-2.215099999999999980e+01 -8.623799999999999244e+00 -2.579699999999999882e+00 2.580442000000000125e+00 -2.398471430838977625e-01
-2.213800000000000168e+01 4.697700000000000209e+00 -1.513299999999999912e+01 -6.893381999999999898e+00 3.139441855726734509e-01
-2.213700000000000045e+01 6.797600000000000087e+00 1.149000000000000021e+01 -1.073361000000000054e+01 -1.375684778096370464e-01
-2.213400000000000034e+01 -4.029700000000000060e+00 -1.171799999999999997e+01 -9.960527999999999604e-01 3.114592885829706170e-01
-2.212399999999999878e+01 1.579700000000000060e+01 -7.205099999999999838e-01 2.489155999999999869e-01 1.168821190590992598e-01
-2.212399999999999878e+01 1.666199999999999903e+01 -7.205099999999999838e-01 -8.343097999999999903e-01 1.174830275070301022e-01
-2.212199999999999989e+01 -3.644700000000000162e-01 -1.358900000000000041e+01 1.982585999999999959e+00 3.097147213453639303e-01
-2.212199999999999989e+01 -3.644700000000000162e-01 -1.272300000000000075e+01 1.906490000000000018e+00 3.122183102446661751e-01
-2.212199999999999989e+01 -8.060999999999999943e+00 -2.849200000000000177e+00 3.124642000000000142e+00 -2.403592197060612778e-01
-2.212199999999999989e+01 -1.768000000000000016e+00 -1.119800000000000040e+01 1.650667999999999935e+01 3.156293916721688575e-01
-2.212099999999999866e+01 8.232200000000000628e+00 -1.440399999999999991e+01 2.748505999999999894e+00 3.178800033764465627e-01
-2.212000000000000099e+01 5.963400000000000034e+00 -1.506900000000000084e+01 3.041494000000000142e+00 3.153538804585816480e-01
-2.210699999999999932e+01 1.811700000000000088e+01 1.374300000000000077e+00 5.185616999999999699e+00 5.034291333106533095e-02
-2.210699999999999932e+01 1.811700000000000088e+01 2.774300000000000210e+00 1.086668000000000056e+01 -1.618004061191217757e-01
-2.210099999999999909e+01 1.542099999999999937e+01 1.041399999999999970e+01 -1.119258999999999915e+01 -1.385374388794968215e-01
-2.209900000000000020e+01 -4.996299999999999741e+00 2.873000000000000220e+00 3.936856999999999829e+00 -2.423481847685273194e-01
-2.209499999999999886e+01 6.676000000000000156e+00 -1.891700000000000159e+01 1.707300000000000040e+01 3.125731077895971266e-01
-2.209499999999999886e+01 6.885100000000000442e+00 -1.818100000000000094e+01 1.041155999999999970e+01 3.133310408905723987e-01
-2.209100000000000108e+01 7.639999999999999680e+00 1.200900000000000034e+01 -2.387810999999999950e+01 -1.383456322712858788e-01
-2.208899999999999864e+01 1.937800000000000011e+01 6.554000000000000270e+00 3.003032999999999841e+00 -1.615719549071841232e-01
-2.208599999999999852e+01 8.922399999999999665e+00 1.275999999999999979e+01 -3.351989999999999981e+01 -1.393237419438307090e-01
-2.207900000000000063e+01 1.565700000000000003e+01 1.292200000000000060e+01 1.419559999999999933e+00 -1.398005598167587626e-01
-2.206800000000000139e+01 1.765099999999999980e+01 8.781900000000000261e+00 1.992670000000000030e+01 -1.269268299241795572e-01
-2.206800000000000139e+01 1.797899999999999920e+01 8.037100000000000577e+00 -1.397948000000000057e+01 -1.277685489880155956e-01
-2.205799999999999983e+01 9.718999999999999417e+00 1.313899999999999935e+01 -2.486758999999999986e+01 -1.397693388347882593e-01
-2.205699999999999861e+01 1.550600000000000023e+01 1.192900000000000027e+01 -7.304395000000000193e-01 1.075367693919865725e-01
-2.205000000000000071e+01 1.618900000000000006e+01 -9.829700000000000770e+00 7.093344000000000094e+00 1.078013057277519560e-01
-2.202599999999999980e+01 3.318999999999999950e+00 9.264300000000000423e+00 7.947047999999999668e+00 -3.499999999999999778e-01
-2.202199999999999847e+01 1.601299999999999946e+00 9.382899999999999352e+00 9.023056999999999661e+00 -3.499999999999999778e-01
-2.202100000000000080e+01 1.640700000000000003e+01 9.640000000000000568e+00 4.113766000000000034e+00 -1.258880123059305522e-01
-2.201999999999999957e+01 -5.599000000000000199e+00 -1.163799999999999990e+01 2.315672999999999870e+00 9.728807287033160167e-02
-2.201899999999999835e+01 1.181700000000000017e+01 1.381499999999999950e+01 -1.121176999999999957e+01 -1.404522804949585035e-01
-2.201800000000000068e+01 1.974699999999999989e+01 5.703999999999999737e+00 4.143931000000000253e+00 -1.611891340910714399e-01
-2.201699999999999946e+01 -3.355900000000000105e+00 6.415000000000000036e+00 1.179153999999999947e+01 -1.004302060814165759e-01
-2.201300000000000168e+01 1.540499999999999936e+01 1.110899999999999999e+01 -6.218805999999999834e+00 1.073737223237536120e-01
-2.201200000000000045e+01 -1.032600000000000051e+01 -1.447599999999999998e+00 4.679604000000000319e+00 -2.384711969591905567e-01
-2.201099999999999923e+01 1.646699999999999875e+01 -6.102299999999999613e+00 -2.270341000000000165e+01 1.147221172067354189e-01
-2.201000000000000156e+01 1.656599999999999895e+01 -8.621800000000000352e+00 -3.284842999999999957e+00 1.104788230410285454e-01
-2.200799999999999912e+01 1.894699999999999918e+01 3.426000000000000156e+00 5.554752999999999830e+00 -1.612890160704919251e-01
-2.200700000000000145e+01 -3.209700000000000220e+00 9.415300000000000225e+00 -1.231574999999999953e+01 -3.499999999999999778e-01
-2.200700000000000145e+01 -3.209700000000000220e+00 1.035500000000000043e+01 -2.008865000000000123e+01 -3.500000000000000333e-01
-2.200700000000000145e+01 -7.502900000000000125e-01 1.035500000000000043e+01 -8.846505999999999403e+01 -3.499999999999999778e-01
-2.200000000000000000e+01 -7.431700000000000195e+00 1.381600000000000050e-01 1.071278000000000041e+01 -2.408612707557931110e-01
-2.199500000000000099e+01 5.368999999999999773e+00 -1.524200000000000088e+01 2.339293000000000067e+00 3.145857606703042486e-01
-2.198499999999999943e+01 -6.067400000000000126e+00 1.018699999999999939e+00 2.625669999999999860e+01 -2.417637641755332467e-01
-2.198100000000000165e+01 1.946199999999999974e+01 4.898299999999999876e+00 4.609162000000000425e+00 -1.611948137080278509e-01
-2.198000000000000043e+01 -3.190399999999999903e+00 8.349500000000000810e+00 -3.037258000000000013e+00 -3.499999999999999778e-01
-2.197500000000000142e+01 1.017300000000000004e+01 -1.322199999999999953e+01 -6.905222000000000193e+00 3.200654354401923363e-01
-2.196900000000000119e+01 -6.744100000000000428e+00 -5.831999999999999851e+00 5.509711000000000247e+00 8.848771462494521567e-02
-2.196900000000000119e+01 -6.535000000000000142e+00 -6.567999999999999616e+00 1.006455000000000055e+01 8.033989346282069399e-02
-2.196900000000000119e+01 -6.281100000000000350e+00 -7.461700000000000443e+00 8.304301999999999850e+00 6.940814015180710173e-02
-2.196799999999999997e+01 -1.979999999999999982e+00 1.117800000000000082e+01 -5.736925000000000097e+01 -1.339416549976474302e-01
-2.195299999999999940e+01 1.117900000000000027e+01 1.358500000000000085e+01 -1.907639999999999958e+01 -1.402581157507580278e-01
-2.195299999999999940e+01 -3.380300000000000082e+00 7.412899999999999601e+00 2.102384999999999948e+01 -3.499999999999999778e-01
-2.194600000000000151e+01 -7.002699999999999925e+00 -4.156799999999999606e+00 5.066599000000000075e+00 3.351632237419206739e-02
-2.193700000000000117e+01 1.931599999999999895e+01 4.275999999999999801e+00 5.869627000000000372e+00 -1.611407466774713582e-01
-2.193400000000000105e+01 5.550099999999999589e+00 9.539400000000000546e+00 -5.116878999999999955e+00 -3.500000000000000333e-01
-2.191700000000000159e+01 -6.996500000000000163e+00 -5.138499999999999623e+00 6.607654000000000138e+00 9.589671593446150166e-02
-2.190399999999999991e+01 -7.297699999999999854e+00 -3.470600000000000129e+00 5.350073000000000328e-02 -2.411735036597118798e-01
-2.189999999999999858e+01 1.539000000000000057e+01 -5.118900000000000006e+00 9.645889000000000379e+00 3.480762446946643329e-02
-2.189099999999999824e+01 -3.645799999999999930e+00 3.892599999999999838e+00 6.642858000000000374e+00 1.021376944231680226e-02
-2.189000000000000057e+01 1.624399999999999977e+01 -1.353400000000000070e+01 4.565582000000000029e+00 1.014746197377528886e-01
-2.188899999999999935e+01 6.734899999999999665e+00 -1.512599999999999945e+01 2.455286000000000080e+00 3.160714862029169181e-01
-2.188200000000000145e+01 -1.197999999999999954e+00 -1.583999999999999986e+01 7.755260999999999960e+00 3.904267399030116881e-01
-2.188200000000000145e+01 -9.441100000000000048e-01 -1.673400000000000176e+01 3.197989000000000193e+00 3.901777104529109419e-01
-2.186700000000000088e+01 -8.289899999999999380e+00 -1.872800000000000020e-01 4.287059000000000175e+00 -2.402748272830070031e-01
-2.186599999999999966e+01 -3.596999999999999975e+00 -1.241799999999999926e+01 3.254356000000000027e+00 3.086892539263928481e-01
-2.186299999999999955e+01 1.523300000000000054e+01 -4.385100000000000442e+00 2.792594999999999938e+00 3.525849663141642637e-02
-2.186299999999999955e+01 1.535100000000000087e+01 -3.537999999999999812e+00 1.669299000000000177e+01 3.589382547185888950e-02
-2.186299999999999955e+01 -3.048000000000000043e+00 -1.315600000000000058e+01 3.399045000000000094e+00 3.062392573456441669e-01
-2.185699999999999932e+01 1.638700000000000045e+01 -1.075699999999999967e+01 1.700125999999999848e+01 1.068364601762903793e-01
-2.185600000000000165e+01 -1.844099999999999906e-01 9.508900000000000574e+00 -3.480709999999999837e+01 -3.499999999999999778e-01
-2.184299999999999997e+01 1.751099999999999923e+01 2.642700000000000049e+00 1.519342999999999932e+01 -1.619105875561903107e-01
-2.183299999999999841e+01 -3.342400000000000038e+00 4.592600000000000016e+00 7.891842999999999719e+00 8.372380032351307844e-03
-2.182600000000000051e+01 1.814099999999999824e+01 7.373099999999999987e+00 -1.140527999999999942e+01 1.187762605835256807e-01
-2.180999999999999872e+01 1.521299999999999919e+01 -2.658199999999999896e+00 2.526032999999999973e+01 3.646428179373205347e-02
-2.180900000000000105e+01 6.466999999999999638e+00 -1.588400000000000034e+01 5.648914999999999687e+00 3.150351089637186686e-01
-2.179899999999999949e+01 1.250200000000000067e+01 1.474499999999999922e+01 -5.529408000000000413e-03 -1.412741407487466683e-01
-2.179899999999999949e+01 1.394800000000000040e+01 1.555100000000000016e+01 -1.323773000000000033e-01 -1.418100501471431241e-01
-2.179899999999999949e+01 1.539400000000000013e+01 1.474499999999999922e+01 1.643938999999999950e+01 -1.411316402156621852e-01
-2.179899999999999949e+01 1.564799999999999969e+01 1.385100000000000087e+01 3.072185000000000166e+00 -1.404969722770402774e-01
-2.179799999999999827e+01 2.746700000000000141e+00 -1.976800000000000068e+01 1.287017000000000078e+00 3.905494311671159346e-01
-2.179599999999999937e+01 1.178599999999999959e+01 -1.411599999999999966e+01 3.046736999999999917e-01 3.201099534485553066e-01
-2.179599999999999937e+01 1.323199999999999932e+01 -1.492200000000000060e+01 6.658357999999999777e-01 9.288210467418354932e-02
-2.179599999999999937e+01 1.470800000000000018e+01 -1.424000000000000021e+01 2.429473000000000216e+00 9.761312148574377567e-02
-2.178500000000000014e+01 1.781500000000000128e+01 3.342699999999999783e+00 2.845788000000000206e+00 -1.617616118294703531e-01
-2.178300000000000125e+01 8.222400000000000375e+00 1.270199999999999996e+01 -1.779267000000000110e+01 -1.392706632243056186e-01
-2.177100000000000080e+01 4.073000000000000398e+00 -2.039199999999999946e+01 5.223672999999999789e+00 3.907653836194625585e-01
-2.177100000000000080e+01 5.772999999999999687e+00 -2.039199999999999946e+01 1.683397000000000077e+01 3.106386761829453280e-01
-2.176300000000000168e+01 -6.620000000000000329e-01 -1.821099999999999852e+01 -7.821466000000000252e-01 3.898621720900685705e-01
-2.176300000000000168e+01 -4.349899999999999878e-01 -1.901000000000000156e+01 -2.612258999999999887e+00 3.898009913477082922e-01
-2.176300000000000168e+01 8.579999999999999849e-01 -1.973100000000000165e+01 -9.819404000000000465e-01 3.900993662013009233e-01
-2.176200000000000045e+01 6.858999999999999986e+00 -1.668199999999999861e+01 6.135830999999999591e+00 3.146479611513028352e-01
-2.175900000000000034e+01 -6.102000000000000313e+00 -8.167299999999999116e+00 9.503963000000000605e+00 5.970440414885312685e-02
-2.175000000000000000e+01 1.752700000000000102e+01 -9.519999999999999574e-01 -1.744164000000000048e+00 1.186440190008319906e-01
-2.175000000000000000e+01 1.857700000000000173e+01 -9.519999999999999574e-01 -3.293344999999999967e+00 1.192002140836735669e-01
-2.175000000000000000e+01 1.857700000000000173e+01 7.479999999999999982e-01 7.438678999999999597e+00 5.129652502668442804e-02
-2.174200000000000088e+01 -4.536299999999999777e+00 3.499299999999999855e+00 8.144527999999999324e+00 1.281185306707846236e-02
-2.173799999999999955e+01 7.728299999999999947e+00 -1.510399999999999920e+01 2.258580999999999950e+00 3.169607623617514691e-01
-2.172800000000000153e+01 1.623000000000000043e+01 -2.295999999999999985e-01 -4.040015999999999607e+00 5.045118900867286149e-02
-2.172500000000000142e+01 -2.200699999999999878e+00 -1.168900000000000006e+01 2.637482999999999933e+01 3.137079469394524756e-01
-2.172500000000000142e+01 -1.335399999999999920e+00 -1.168900000000000006e+01 1.539926999999999957e+01 3.145981489801831787e-01
-2.171799999999999997e+01 -9.114699999999999136e+00 -2.183100000000000041e+00 6.886559000000000097e+00 -2.396175260567180998e-01
-2.169200000000000017e+01 -1.388500000000000068e+00 -1.470899999999999963e+01 3.645820000000000061e+00 3.042132986405001738e-01
-2.169200000000000017e+01 1.509699999999999953e+01 -9.878900000000000459e-01 -1.877332000000000001e+00 5.016395692061146466e-02
-2.169000000000000128e+01 -4.166299999999999670e+00 -1.245599999999999952e+01 3.217207999999999846e+00 3.076624324392693843e-01
-2.167899999999999849e+01 1.731599999999999895e+01 1.527800000000000047e+00 -3.034822999999999826e+00 -1.616689039560811614e-01
-2.167899999999999849e+01 1.894600000000000151e+01 -1.019999999999999934e-01 -4.533017000000000074e+00 5.205775855155406889e-02
-2.167299999999999827e+01 1.896399999999999864e+01 5.703999999999999737e+00 -1.005943000000000032e+00 -1.613079284548516457e-01
-2.167200000000000060e+01 9.473100000000000520e+00 -1.327999999999999936e+01 -6.746462000000000181e+00 3.198097061279601139e-01
-2.167099999999999937e+01 -3.980199999999999960e+00 5.764499999999999957e+00 7.877074999999999605e+00 -1.356887589709005471e-01
-2.166700000000000159e+01 -2.504100000000000215e+00 -1.238899999999999935e+01 3.173125999999999891e+01 3.105055646796851532e-01
-2.166700000000000159e+01 -1.032000000000000028e+00 -1.392300000000000004e+01 3.635810000000000208e+00 3.074995354246533585e-01
-2.166700000000000159e+01 -1.032000000000000028e+00 -1.238899999999999935e+01 8.098950000000000315e+00 3.125807998886452888e-01
-2.166600000000000037e+01 5.982700000000000351e+00 1.023900000000000077e+01 -1.061810999999999972e+01 -1.021914492476279496e-01
-2.166499999999999915e+01 7.275100000000000122e+00 1.205799999999999983e+01 -1.716957999999999984e+01 -1.384349333331292009e-01
-2.165399999999999991e+01 -4.155599999999999739e+00 4.395999999999999908e+00 5.615656999999999677e+00 1.010142715877032638e-02
-2.165399999999999991e+01 -5.975399999999999601e+00 1.590400000000000036e+00 2.187274999999999991e+01 -2.419676917065805011e-01
-2.164999999999999858e+01 1.047899999999999920e+01 1.352699999999999925e+01 -2.860435999999999979e+01 -1.402621651184276508e-01
-2.164699999999999847e+01 4.208899999999999864e+00 9.107499999999999929e+00 -2.640153999999999890e+00 -3.499999999999999778e-01
-2.164499999999999957e+01 -2.539099999999999913e+00 -1.397899999999999920e+01 1.793895999999999935e+00 3.038561418312077378e-01
-2.164000000000000057e+01 1.606800000000000139e+01 9.691599999999999326e+00 -2.404415000000000191e+00 -1.254771520805026686e-01
-2.163200000000000145e+01 -3.862899999999999778e+00 -1.315600000000000058e+01 3.218859000000000137e+00 3.045369667524874813e-01
-2.163200000000000145e+01 -2.233099999999999863e+00 -1.315600000000000058e+01 1.850789999999999935e+01 3.078217744439841752e-01
-2.163200000000000145e+01 -7.610700000000000243e-01 -1.315600000000000058e+01 7.017326999999999870e+00 3.104696480865498098e-01
-2.161299999999999955e+01 -1.103800000000000026e+01 -1.300999999999999934e+00 9.296433999999999642e+00 -2.380190749378482962e-01
-2.160600000000000165e+01 -4.237000000000000099e+00 4.988999999999999879e+00 6.698318000000000438e+00 -1.351557262834033879e-01
-2.159900000000000020e+01 1.758399999999999963e+01 7.703299999999999592e-01 4.602551000000000059e+00 5.084227559808165292e-02
-2.159199999999999875e+01 -4.906600000000000072e+00 -1.205199999999999960e+01 2.274039000000000144e+00 3.089699565375981782e-01
-2.159100000000000108e+01 6.104300000000000281e+00 1.114199999999999946e+01 -5.395698000000000327e+00 -1.370578461316580010e-01
-2.157999999999999829e+01 1.851300000000000168e+01 4.218600000000000350e+00 5.230267999999999695e+00 -1.612545188517077177e-01
-2.157400000000000162e+01 -5.846300000000000274e+00 2.548299999999999788e+00 7.254665000000000141e+00 -2.421058423175807273e-01
-2.156800000000000139e+01 -9.901400000000000645e+00 -7.209999999999999742e-01 8.507172000000000622e+00 -2.390484647100472038e-01
-2.156700000000000017e+01 -6.731700000000000017e+00 4.055400000000000116e-01 3.423071000000000197e+01 -2.415395040441140062e-01
-2.156700000000000017e+01 -3.527000000000000135e+00 -1.393099999999999916e+01 2.306734000000000062e+00 3.014872052890332776e-01
-2.156500000000000128e+01 1.676899999999999835e+01 -1.268399999999999928e+01 1.558394000000000013e+01 1.046067207170236629e-01
-2.156500000000000128e+01 1.676899999999999835e+01 -1.163400000000000034e+01 -6.893807999999999936e+00 1.064772182101378639e-01
-2.156299999999999883e+01 1.717200000000000060e+01 -1.548299999999999954e-01 -4.419501000000000346e+00 5.119991368366520745e-02
-2.156200000000000117e+01 1.497300000000000075e+01 -1.749500000000000055e+00 1.375522999999999918e+01 1.173736033084087360e-01
-2.155099999999999838e+01 -9.050200000000000244e+00 -2.379000000000000004e-01 5.810494000000000270e+00 -2.398041172943536359e-01
-2.155000000000000071e+01 -6.358999999999999986e+00 -1.040799999999999947e+01 5.806519999999999904e+00 1.191610574781318543e-01
-2.155000000000000071e+01 -6.131999999999999673e+00 -1.120700000000000074e+01 7.460854999999999571e+00 1.042573271163540066e-01
-2.155000000000000071e+01 -6.131999999999999673e+00 -9.608900000000000219e+00 2.514464999999999861e+01 4.103469012532679622e-02
-2.155000000000000071e+01 -5.922900000000000276e+00 -8.872899999999999565e+00 8.271020000000000039e+00 4.917686827579204056e-02
-2.154700000000000060e+01 1.106499999999999950e+01 -1.335699999999999932e+01 1.195877999999999997e+00 3.204751239783009131e-01
-2.154299999999999926e+01 7.295899999999999608e+00 -1.591900000000000048e+01 3.033758999999999872e+00 3.158626949114607951e-01
-2.154100000000000037e+01 6.831999999999999851e+00 -1.771600000000000108e+01 9.916105999999999199e+00 3.137681995846426930e-01
-2.154100000000000037e+01 1.700000000000000000e+01 -8.131099999999999994e+00 -6.545609999999999928e+00 1.129119364142806559e-01
-2.154100000000000037e+01 1.700000000000000000e+01 -6.532899999999999707e+00 -3.316631000000000284e+01 1.155567097829024725e-01
-2.154100000000000037e+01 1.722700000000000031e+01 -7.331999999999999851e+00 -4.005989000000000289e+01 1.143976772030501354e-01
-2.153699999999999903e+01 -2.449699999999999989e+00 1.064499999999999957e+01 -4.953506000000000142e+01 -1.323285995847598984e-01
-2.153699999999999903e+01 -1.510299999999999976e+00 1.064499999999999957e+01 -5.509841999999999729e+01 -1.329660582049325968e-01
-2.153399999999999892e+01 1.883699999999999974e+01 4.975999999999999979e+00 1.221827999999999914e+00 -1.611380315079483094e-01
-2.151099999999999923e+01 6.697199999999999598e+00 -1.867399999999999949e+01 1.558075000000000010e+01 3.128837173868478372e-01
-2.150100000000000122e+01 2.468999999999999861e+00 9.589000000000000412e+00 1.189317999999999920e+01 -3.500000000000000333e-01
-2.149899999999999878e+01 1.577500000000000036e+01 -5.687500000000000000e+00 -2.299513999999999925e+01 1.163891268932581297e-01
-2.147400000000000020e+01 -2.779100000000000126e+00 9.884999999999999787e+00 -2.932381000000000171e+01 -3.499999999999999778e-01
-2.147400000000000020e+01 -1.180900000000000061e+00 9.884999999999999787e+00 -7.273296999999999457e+01 -3.499999999999999778e-01
-2.147299999999999898e+01 -3.794999999999999929e+00 6.894000000000000128e+00 2.250852000000000075e+01 -3.500000000000000333e-01
-2.147100000000000009e+01 -7.788599999999999746e+00 -3.073999999999999844e+00 2.578657999999999895e+00 -2.410226973318402577e-01
-2.145799999999999841e+01 -1.768000000000000016e+00 -1.392300000000000004e+01 3.631136000000000141e+00 3.058871692677332943e-01
-2.145799999999999841e+01 -1.768000000000000016e+00 -1.238899999999999935e+01 2.264301000000000030e+01 3.116854935953521921e-01
-2.145700000000000074e+01 1.731099999999999994e+01 9.302599999999999980e+00 8.841273999999999944e+01 -1.258217404479875789e-01
-2.144999999999999929e+01 1.547899999999999920e+01 -1.366799999999999926e+01 2.116912000000000127e+00 1.011111467551055743e-01
-2.144800000000000040e+01 -1.191200000000000081e+01 -3.914000000000000146e+00 2.106361999999999846e+00 -1.340059847403780591e-01
-2.144600000000000151e+01 6.298300000000000232e+00 -1.954200000000000159e+01 1.829552999999999940e+01 3.118399307634286965e-01
-2.142500000000000071e+01 1.805199999999999960e+01 -1.019999999999999934e-01 6.245047999999999710e+00 5.182413739612863612e-02
-2.142399999999999949e+01 1.552999999999999936e+01 -2.878899999999999793e-01 -5.040326000000000306e+00 5.030511372263381936e-02
-2.142200000000000060e+01 -1.497100000000000097e+00 -1.315600000000000058e+01 9.433396000000000114e+00 3.092582140041223449e-01
-2.141600000000000037e+01 -8.774899999999999922e-01 9.185000000000000497e+00 -3.101811000000000007e+01 -3.499999999999999778e-01
-2.141000000000000014e+01 -2.580400000000000027e+00 9.220599999999999241e+00 -1.920545999999999864e+01 -3.499999999999999778e-01
-2.140200000000000102e+01 4.923000000000000043e+00 -2.046300000000000097e+01 1.227383000000000024e+01 3.908968125523423209e-01
-2.139799999999999969e+01 7.707699999999999996e+00 1.275799999999999912e+01 -8.335444999999999993e+00 -1.393830576244403374e-01
-2.139000000000000057e+01 -1.505600000000000049e+00 9.117399999999999949e+00 -1.847352000000000061e+01 -3.500000000000000333e-01
-2.138599999999999923e+01 8.655099999999999127e+00 1.319299999999999962e+01 -2.023358999999999952e+01 -1.399373558054994304e-01
-2.137800000000000011e+01 -5.414299999999999891e+00 3.434499999999999886e+00 6.564573000000000214e+00 1.481014641147138967e-02
-2.137500000000000000e+01 -2.921600000000000197e+00 8.506199999999999761e+00 3.400809999999999889e+00 -3.499999999999999778e-01
-2.137500000000000000e+01 -5.051899999999999835e+00 4.988999999999999879e+00 1.023030999999999935e+01 -1.328759961321026029e-01
-2.137399999999999878e+01 1.680900000000000105e+01 9.564399999999999569e-01 -1.176823000000000086e+01 5.044646036826874042e-02
-2.137199999999999989e+01 1.849699999999999989e+01 6.598399999999999821e+00 -6.904893999999999643e+00 -1.614212895678480975e-01
-2.136599999999999966e+01 1.201099999999999923e+01 1.434800000000000075e+01 -3.854134000000000171e+00 -1.410558142913594659e-01
-2.136400000000000077e+01 -1.144400000000000084e+00 -1.646799999999999997e+01 1.095628999999999964e+00 3.901398307485823835e-01
-2.135999999999999943e+01 5.019000000000000128e+00 9.356299999999999173e+00 -1.235009999999999941e+01 -3.499999999999999778e-01
-2.135500000000000043e+01 -5.053499999999999659e+00 4.156399999999999650e+00 6.361032999999999937e+00 1.220702979592514816e-02
-2.132600000000000051e+01 9.711399999999999366e+00 1.349499999999999922e+01 -1.693450999999999951e+01 -1.402972457226124570e-01
-2.132600000000000051e+01 -1.150300000000000011e+01 -2.111299999999999955e+00 1.232126000000000055e+01 -2.376249173518888147e-01
-2.132400000000000162e+01 -4.473900000000000432e+00 -1.275200000000000067e+01 3.115095999999999865e+00 3.054984507556435247e-01
-2.131500000000000128e+01 1.940899999999999892e+01 1.180300000000000082e+01 -1.092637999999999998e+01 -1.711305370509265678e-01
-2.130999999999999872e+01 -1.106499999999999950e+01 -2.447299999999999809e+00 2.166204000000000107e+01 -2.379734693593479056e-01
-2.130999999999999872e+01 1.662399999999999878e+01 -8.925200000000000244e+00 -1.147566000000000086e+00 1.118446007397015246e-01
-2.130999999999999872e+01 -4.716000000000000192e+00 5.764000000000000234e+00 4.633232000000000284e+01 -1.343593855710161766e-01
-2.130499999999999972e+01 -7.611900000000000333e+00 3.103199999999999847e-01 1.175093000000000032e+01 -2.410649016723716009e-01
-2.130099999999999838e+01 6.573999999999999844e+00 1.190199999999999925e+01 -1.620683999999999969e+01 -1.382057761279114616e-01
-2.130000000000000071e+01 -6.299100000000000144e+00 1.105499999999999927e+00 5.118092999999999648e+01 -2.419407185229615620e-01
-2.129299999999999926e+01 9.800000000000000377e-02 -1.944099999999999895e+01 -2.377097000000000016e+00 3.898527044007588649e-01
-2.129299999999999926e+01 1.594100000000000072e+01 1.250000000000000000e+01 6.374037999999999649e+00 -1.396295542835903347e-01
-2.129299999999999926e+01 1.758599999999999852e+01 8.445999999999999730e+00 8.428312999999999278e+00 -1.266838185680678186e-01
-2.128900000000000148e+01 1.625599999999999934e+00 -1.958800000000000097e+01 -1.333986999999999945e+01 3.902707893826292684e-01
-2.128800000000000026e+01 3.525599999999999845e+00 -1.999699999999999989e+01 7.220606000000000080e+00 3.906667254178852189e-01
-2.127599999999999980e+01 2.801699999999999746e-01 8.761200000000000543e+00 -1.786123999999999867e+01 -3.499999999999999778e-01
-2.127400000000000091e+01 1.309800000000000075e+01 1.522600000000000087e+01 3.972588000000000008e+00 -1.417450823057579412e-01
-2.127400000000000091e+01 1.479800000000000004e+01 1.522600000000000087e+01 9.154842999999999620e+00 -1.416121051023587762e-01
-2.127100000000000080e+01 1.238199999999999967e+01 -1.459699999999999953e+01 8.985718000000000316e-01 9.303928909662234625e-02
-2.127100000000000080e+01 1.408200000000000074e+01 -1.459699999999999953e+01 9.066596999999999795e+00 9.708064482013453733e-02
-2.126999999999999957e+01 -1.048199999999999932e+01 -3.433999999999999830e-01 9.039908000000000499e+00 -2.387139655057515242e-01
-2.125799999999999912e+01 1.694000000000000128e+01 3.071899999999999853e+00 -6.383626999999999718e+00 -1.617465643462007441e-01
-2.125600000000000023e+01 -1.184099999999999930e+01 -1.300999999999999934e+00 3.816600000000000215e+00 -2.375143150557904037e-01
-2.125199999999999889e+01 -1.136800000000000033e+01 -3.147299999999999986e+00 1.844744000000000028e+01 -2.376269122066609063e-01
-2.125100000000000122e+01 1.687600000000000122e+01 2.118300000000000072e+00 -1.048133999999999943e+01 -1.616094855998731206e-01
-2.124699999999999989e+01 -1.979999999999999982e+00 9.884999999999999787e+00 -2.919118999999999886e+01 -3.499999999999999778e-01
-2.123900000000000077e+01 8.982100000000000861e+00 -1.367699999999999960e+01 7.047111000000000125e+00 3.193636332443799963e-01
-2.123900000000000077e+01 1.017300000000000004e+01 -1.301299999999999990e+01 1.788372000000000073e+00 3.205226105125708047e-01
-2.123499999999999943e+01 -9.810499999999999332e+00 -2.173500000000000210e+00 1.371551999999999971e+01 -2.392477019931765481e-01
-2.123499999999999943e+01 -9.810499999999999332e+00 -2.885199999999999987e-01 1.009728999999999921e+01 -2.393035156545941233e-01
-2.122700000000000031e+01 -2.141500000000000181e+00 -1.452699999999999925e+01 9.287126999999999466e-01 3.026708066516856643e-01
-2.122599999999999909e+01 8.675700000000000855e+00 -1.459600000000000009e+01 9.278309000000000140e+00 3.183083991222333542e-01
-2.122299999999999898e+01 -7.084800000000000431e+00 -5.213300000000000267e+00 5.138182999999999723e+00 9.731070626449636607e-02
-2.121699999999999875e+01 -1.272700000000000031e+01 -3.914000000000000146e+00 1.147324000000000011e+00 -1.340418983362696159e-01
-2.121699999999999875e+01 -1.109699999999999953e+01 -3.914000000000000146e+00 1.778213999999999828e+01 -2.378099147529750268e-01
-2.120700000000000074e+01 1.536800000000000033e+01 1.082399999999999984e+01 -1.674392999999999887e+01 -1.380318149822181706e-01
-2.120700000000000074e+01 1.557699999999999996e+01 1.008799999999999919e+01 -1.472513000000000005e+01 -1.245578490339438044e-01
-2.120700000000000074e+01 1.557699999999999996e+01 1.156000000000000050e+01 3.648197000000000134e+00 1.076310958365475079e-01
-2.120700000000000074e+01 1.676800000000000068e+01 9.424200000000000799e+00 4.646714000000000055e+01 -1.254434737339632511e-01
-2.120400000000000063e+01 -7.355999999999999872e+00 -3.774000000000000021e+00 4.369925000000000281e+00 -2.416902696943745710e-01
-2.118499999999999872e+01 -1.147199999999999953e+01 -4.510000000000000120e-01 3.084684000000000204e+00 -2.379425328794141925e-01
-2.118199999999999861e+01 -1.465400000000000036e+00 -1.540700000000000003e+01 3.185378000000000043e+00 3.017380605226966384e-01
-2.118199999999999861e+01 1.856800000000000139e+01 5.271399999999999864e+00 -5.282022000000000439e+00 -1.609953473558616843e-01
-2.118199999999999861e+01 1.856800000000000139e+01 6.136599999999999611e+00 -7.295244000000000284e+00 -1.611302693024575516e-01
-2.117200000000000060e+01 -3.421100000000000030e+00 7.725600000000000023e+00 3.182595000000000063e+00 -3.499999999999999778e-01
-2.116300000000000026e+01 -6.109300000000000175e+00 -7.913100000000000023e+00 1.337363999999999997e+01 6.076286646865101948e-02
-2.115399999999999991e+01 1.569299999999999962e+01 1.333399999999999963e+01 9.706837000000000160e+00 -1.402369264289164419e-01
-2.115200000000000102e+01 -1.239100000000000001e+01 -4.689000000000000057e+00 3.152356999999999854e+00 -1.296066421385922429e-01
-2.115200000000000102e+01 -1.239100000000000001e+01 -3.138999999999999790e+00 2.041586000000000095e-02 -2.489543035061140552e-01
-2.115200000000000102e+01 -1.143299999999999983e+01 -4.689000000000000057e+00 4.266326000000000285e+00 -1.298449272026081514e-01
-2.114000000000000057e+01 8.232400000000000162e+00 1.333200000000000074e+01 -1.074959999999999916e+01 -1.401434637453607412e-01
-2.113500000000000156e+01 7.544999999999999929e+00 -1.652499999999999858e+01 5.066907999999999745e+00 3.156520414362655735e-01
-2.112800000000000011e+01 -3.048000000000000043e+00 -1.447499999999999964e+01 1.144401000000000002e+00 3.001146473123966762e-01
-2.112300000000000111e+01 -1.938199999999999923e+00 8.417400000000000659e+00 -3.202487000000000084e+00 -3.499999999999999778e-01
-2.112300000000000111e+01 -1.072999999999999954e+00 8.417400000000000659e+00 -1.368753000000000064e+01 -3.499999999999999778e-01
-2.111899999999999977e+01 -6.210300000000000153e+00 -7.093300000000000161e+00 1.024422999999999995e+01 7.112406784889913069e-02
-2.111799999999999855e+01 9.190599999999999881e+00 1.354100000000000037e+01 -1.237142000000000053e+01 -1.403930411097662478e-01
-2.111199999999999832e+01 5.569399999999999906e+00 1.077399999999999913e+01 -4.607249000000000372e+00 -1.364854610883509678e-01
-2.110099999999999909e+01 1.813700000000000045e+01 4.708599999999999675e+00 -8.100638999999999257e+00 -1.610771685174489654e-01
-2.109600000000000009e+01 1.612699999999999889e+01 -1.033699999999999974e+01 4.675233999999999668e+00 1.093748496829763939e-01
-2.109600000000000009e+01 1.633599999999999852e+01 -9.600799999999999557e+00 3.363100000000000200e+00 1.109513762975080364e-01
-2.109400000000000119e+01 -1.208799999999999919e+01 -2.439000000000000057e+00 4.013103000000000087e+00 -2.372113691355648424e-01
-2.109299999999999997e+01 5.451699999999999768e+00 1.005599999999999916e+01 -6.506293000000000326e+00 -1.021447172168904877e-01
-2.108800000000000097e+01 -4.301999999999999602e+00 -1.363499999999999979e+01 6.934402000000000399e+00 3.006216225622458382e-01
-2.108800000000000097e+01 1.860999999999999943e+01 1.180300000000000082e+01 -5.053612000000000215e+00 -1.713567928501500970e-01
-2.108800000000000097e+01 2.020799999999999841e+01 1.180300000000000082e+01 -6.416578000000000337e+00 -1.707970658396794905e-01
-2.108699999999999974e+01 1.122400000000000020e+01 1.407000000000000028e+01 -9.606073000000000306e+00 -1.408979042628828171e-01
-2.107999999999999829e+01 -5.599000000000000199e+00 -1.163799999999999990e+01 3.242363999999999802e+00 3.112723318919990989e-01
-2.107100000000000151e+01 1.646699999999999875e+01 -6.102299999999999613e+00 -4.694303000000000026e+01 1.172260691249850384e-01
-2.106099999999999994e+01 -8.597699999999999676e+00 -2.772600000000000176e+00 6.504664000000000001e+00 -2.405961822268489203e-01
-2.105300000000000082e+01 8.088900000000000645e+00 -1.568699999999999939e+01 2.198198000000000096e+00 3.169234832804977420e-01
-2.104299999999999926e+01 -8.492000000000000881e+00 2.151099999999999957e-01 9.949237999999999360e+00 -2.405316680551680408e-01
-2.103999999999999915e+01 1.515499999999999936e+01 -5.109799999999999898e+00 -1.344703999999999899e+00 3.639241384778211380e-02
-2.103999999999999915e+01 1.591900000000000048e+01 -1.300900000000000034e+01 1.001406000000000063e+01 1.041950396033416854e-01
-2.103200000000000003e+01 -4.385900000000000354e+00 6.562299999999999578e+00 8.316895000000000593e+00 -9.962185158252159778e-02
-2.102499999999999858e+01 1.893900000000000006e+01 1.104299999999999926e+01 -4.937759999999999927e+00 -1.237254452894732404e-01
-2.102499999999999858e+01 1.893900000000000006e+01 1.256300000000000061e+01 -5.541193999999999953e+00 -1.724974923933941529e-01
-2.102499999999999858e+01 1.987900000000000134e+01 1.104299999999999926e+01 -5.871171000000000362e+00 -1.238439769687374181e-01
-2.102499999999999858e+01 1.987900000000000134e+01 1.256300000000000061e+01 -8.400259000000000142e+00 -1.721126312743256892e-01
-2.101399999999999935e+01 1.617000000000000171e+01 -1.121299999999999919e+01 3.022944999999999993e+00 1.080026796682316687e-01
-2.101300000000000168e+01 1.502599999999999980e+01 -4.063299999999999912e+00 2.057995999999999981e+01 3.705908517081034359e-02
-2.101300000000000168e+01 1.502599999999999980e+01 -3.012700000000000156e+00 2.504851000000000028e+01 3.772614707965391695e-02
-2.100300000000000011e+01 -3.717099999999999849e-01 -1.868100000000000094e+01 -1.533230000000000093e+00 3.897631759762488768e-01
-2.100000000000000000e+01 2.920100000000000140e+00 -1.985900000000000176e+01 2.233407000000000142e+00 3.905388545357749708e-01
-2.099500000000000099e+01 -7.281699999999999839e-01 -1.794900000000000162e+01 -8.006111000000000200e-01 3.897827540728954765e-01
-2.098999999999999844e+01 1.174900000000000055e+01 -1.383099999999999952e+01 1.635585000000000067e+00 9.420514873413990409e-02
-2.098900000000000077e+01 3.310299999999999798e+00 9.410099999999999909e+00 1.550786000000000087e+01 -3.499999999999999778e-01
-2.097599999999999909e+01 1.618999999999999995e+00 9.264300000000000423e+00 7.668236000000000274e+00 -3.499999999999999778e-01
-2.097200000000000131e+01 9.801699999999999857e-01 8.819399999999999906e+00 2.618886999999999965e+00 -3.499999999999999778e-01
-2.096900000000000119e+01 1.628800000000000026e+01 -1.215900000000000070e+01 -9.729233999999999938e+00 1.064981415641371720e-01
-2.096499999999999986e+01 7.007699999999999818e+00 1.249099999999999966e+01 -5.924980999999999831e+00 -1.390972210344847970e-01
-2.096399999999999864e+01 8.579999999999999849e-01 -1.950400000000000134e+01 -1.522202000000000055e+01 3.900446100689244910e-01
-2.094900000000000162e+01 1.532300000000000040e+01 1.437599999999999945e+01 1.637741000000000113e+01 -1.410275834506924952e-01
-2.094200000000000017e+01 1.445299999999999940e+01 -2.078500000000000014e+00 2.119157999999999831e+01 1.182222535422501053e-01
-2.094200000000000017e+01 1.445299999999999940e+01 -1.213200000000000056e+00 2.905095000000000027e+01 5.070040322381785813e-02
-2.094000000000000128e+01 1.779700000000000060e+01 7.731099999999999639e+00 -5.159110000000000085e+00 -1.272286114549725233e-01
-2.094000000000000128e+01 1.800600000000000023e+01 6.995000000000000107e+00 -1.499703000000000053e+01 -1.613495718826572500e-01
-2.093599999999999994e+01 -5.547600000000000087e+00 4.515200000000000102e+00 5.799163000000000068e+00 -1.324854255863482100e-01
-2.092099999999999937e+01 5.448299999999999699e+00 -1.986700000000000088e+01 1.321387000000000000e+01 3.106385839158926077e-01
-2.091100000000000136e+01 -6.554400000000000226e+00 -6.071699999999999875e+00 1.285374000000000017e+01 8.476211950967074693e-02
-2.091000000000000014e+01 1.466499999999999915e+01 -1.391200000000000081e+01 6.793517999999999724e+00 1.007170431096177377e-01
-2.090500000000000114e+01 1.394800000000000040e+01 1.529700000000000060e+01 4.565229000000000426e+00 -1.418107647486000211e-01
-2.090200000000000102e+01 1.323199999999999932e+01 -1.466799999999999926e+01 2.198986000000000107e+00 9.616077810887936617e-02
-2.089399999999999835e+01 4.364799999999999791e+00 -2.001000000000000156e+01 6.235039999999999694e+00 3.908143934549824783e-01
-2.087199999999999989e+01 1.496599999999999930e+01 -2.889900000000000246e-01 3.269266000000000005e+00 5.049590795204130650e-02
-2.086799999999999855e+01 8.742100000000000648e+00 -1.559500000000000064e+01 2.198357000000000117e+00 3.175638090246847289e-01
-2.086599999999999966e+01 1.634799999999999898e+01 1.669000000000000039e+00 -1.981300999999999846e+01 -1.614522332002268634e-01
-2.086199999999999832e+01 1.761799999999999855e+01 3.969899999999999984e+00 -9.100129000000000801e+00 -1.610191024933379234e-01
-2.085900000000000176e+01 7.398299999999999876e+00 1.331099999999999994e+01 -7.096508000000000038e+00 -1.401755309021023577e-01
-2.085699999999999932e+01 1.033399999999999963e+01 1.399900000000000055e+01 -1.020888000000000062e+01 -1.409138091931045333e-01
-2.085399999999999920e+01 -1.266499999999999915e+01 -2.498899999999999899e+00 1.231565000000000021e+00 -2.369352686752186354e-01
-2.084100000000000108e+01 6.981399999999999828e+00 -1.813100000000000023e+01 9.874382000000000659e+00 3.138033238593234131e-01
-2.084100000000000108e+01 7.099400000000000155e+00 -1.728300000000000125e+01 1.102020000000000088e+01 3.146406164562924324e-01
-2.084100000000000108e+01 1.705799999999999983e+01 -8.434499999999999886e+00 1.014493000000000089e+00 1.142847373782697601e-01
-2.083899999999999864e+01 -1.024300000000000033e+01 -2.664400000000000102e+00 2.922896000000000072e+01 -2.391160309119441385e-01
-2.083099999999999952e+01 -5.490999999999999659e+00 5.467999999999999972e+00 1.299200000000000088e+01 -1.330896623392303912e-01
-2.083099999999999952e+01 6.041000000000000369e+00 1.147100000000000009e+01 -5.958291000000000004e+00 -1.376249793012789269e-01
-2.082999999999999829e+01 -1.051699999999999946e+01 -9.305999999999999162e+00 7.221351000000000298e+00 -8.442547938662570139e-02
-2.082199999999999918e+01 1.193399999999999928e+01 -1.427999999999999936e+01 1.727179999999999938e+00 9.413531783419022692e-02
-2.081200000000000117e+01 1.730900000000000105e+01 -7.684400000000000119e+00 -3.108486000000000082e+00 1.157652130570742399e-01
-2.080699999999999861e+01 9.473100000000000520e+00 -1.327999999999999936e+01 5.773164000000000406e+00 3.201625858072710828e-01
-2.079799999999999827e+01 -9.337799999999999656e+00 -2.689400000000000013e+00 1.076244999999999941e+01 -2.401050050974315453e-01
-2.079200000000000159e+01 -3.822999999999999954e+00 -1.441000000000000014e+01 2.248975000000000168e+00 3.906921347343368933e-01
