-8.421300000000000452e+00 -5.839699999999999669e+00 3.718800000000000239e+01 -2.593336000000000041e+01 -4.178441846207124333e-01
-8.419900000000000162e+00 -2.928900000000000148e+01 6.377199999999999847e+01 2.833146000000000164e+00 -3.500000000000000333e-01
-8.416999999999999815e+00 -1.295299999999999940e+01 1.161299999999999955e+01 -1.139118999999999993e+01 -1.934104554444996682e-01
-8.413399999999999324e+00 -2.536999999999999922e+00 1.904200000000000159e+01 2.036289999999999978e+01 -4.176849562541445349e-01
-8.411300000000000665e+00 -1.588499999999999979e+01 1.787000000000000099e+01 3.641986999999999863e+00 -1.951466625695484347e-01
-8.410700000000000287e+00 -2.625799999999999912e+01 6.387700000000000244e+01 2.151028000000000162e+01 -3.499999999999999778e-01
-8.407600000000000406e+00 6.847400000000000375e+00 2.037399999999999878e+01 -3.457910000000000039e+00 -3.169064903180324189e-01
-8.403900000000000148e+00 -1.923799999999999955e+01 7.520999999999999375e+01 -5.692366999999999955e+00 -1.700181401874270859e-01
-8.403700000000000614e+00 7.366999999999999993e+00 5.492600000000000193e+01 -8.433790999999999372e+00 -4.170627478963401247e-01
-8.396000000000000796e+00 9.864300000000000068e+00 2.330099999999999838e+01 -8.795956000000000330e+00 -2.896539812927243496e-01
-8.396000000000000796e+00 9.864300000000000068e+00 2.395299999999999940e+01 -1.060283000000000087e+01 -2.895755814649220716e-01
-8.394399999999999196e+00 -4.638899999999999579e+00 1.911599999999999966e+01 1.843168000000000006e+01 -1.736107892737426828e-01
-8.393800000000000594e+00 -2.601500000000000057e+01 5.247599999999999909e+01 -3.799799000000000149e+00 -3.500000000000000333e-01
-8.392300000000000537e+00 -3.607699999999999907e+00 4.414399999999999835e+01 -9.630722999999999701e+00 -3.830791995488024293e-01
-8.391199999999999548e+00 -1.989399999999999835e+01 7.518300000000000693e+01 -3.234871000000000052e+00 -1.700442407735672234e-01
-8.388500000000000512e+00 -5.282700000000000173e+00 4.589099999999999824e+01 -2.306390000000000029e+01 -3.830891251648267382e-01
-8.387600000000000833e+00 -3.990699999999999914e+00 6.089200000000000301e+01 2.556137999999999977e+01 -4.169870749314580349e-01
-8.386900000000000688e+00 5.823399999999999688e-01 5.842399999999999949e+01 1.003514000000000017e+01 -3.834117267197149626e-01
-8.386599999999999611e+00 -1.470100000000000051e+01 1.668199999999999861e+01 9.761661000000000143e+00 -1.931649452255828625e-01
-8.385999999999999233e+00 -1.453200000000000003e+01 5.012899999999999778e+01 2.468224000000000196e+00 -3.837915561099123907e-01
-8.384999999999999787e+00 -1.626899999999999835e+01 5.132999999999999829e+01 2.689090999999999898e+00 -3.839440870570852704e-01
-8.383599999999999497e+00 1.152400000000000091e+00 3.454999999999999716e+01 -4.250042999999999793e+00 -3.828073791840196360e-01
-8.383599999999999497e+00 1.152400000000000091e+00 3.595000000000000284e+01 -4.507672999999999597e+00 -3.828945202602610509e-01
-8.383599999999999497e+00 2.017700000000000049e+00 3.454999999999999716e+01 -1.439356999999999998e+00 -3.828550292208399708e-01
-8.383599999999999497e+00 2.017700000000000049e+00 3.595000000000000284e+01 -3.849191999999999947e+00 -3.829376724337879567e-01
-8.382400000000000517e+00 -1.893199999999999861e+01 7.829900000000000659e+01 -3.315426999999999680e+01 -1.702025478356581911e-01
-8.382300000000000750e+00 -1.778800000000000026e+01 2.167399999999999949e+01 3.029587999999999948e+00 -3.847620717751399355e-01
-8.380300000000000082e+00 1.163799999999999973e-01 6.872100000000000364e+01 1.069200999999999979e+01 -3.831797922628067954e-01
-8.375000000000000000e+00 1.399499999999999922e+01 4.253199999999999648e+01 1.132081999999999944e+01 -2.563612930358354358e-01
-8.375000000000000000e+00 1.424900000000000055e+01 4.163799999999999812e+01 6.454178999999999888e+00 -2.564837848774150220e-01
-8.371000000000000441e+00 -2.554700000000000060e+01 6.304899999999999949e+01 3.257168000000000063e+01 -3.499999999999999778e-01
-8.371000000000000441e+00 -2.520200000000000173e+01 6.226599999999999824e+01 3.731533000000000300e+01 -3.499999999999999778e-01
-8.371000000000000441e+00 -2.401099999999999923e+01 6.160199999999999676e+01 2.342366000000000170e+01 -3.499999999999999778e-01
-8.371000000000000441e+00 -2.282000000000000028e+01 6.226599999999999824e+01 1.217698000000000036e+01 -3.500000000000000333e-01
-8.368700000000000472e+00 -2.189099999999999824e+01 5.494899999999999807e+01 3.661167999999999978e+00 -3.500000000000000333e-01
-8.368700000000000472e+00 -2.189099999999999824e+01 5.581499999999999773e+01 5.053562999999999583e+00 -3.499999999999999778e-01
-8.367599999999999483e+00 8.956099999999999284e+00 2.549399999999999977e+01 6.362834999999999575e+00 -2.883023544505224356e-01
-8.359999999999999432e+00 -1.304700000000000060e+01 1.251500000000000057e+01 -1.187079999999999913e+00 -1.919321987979784594e-01
-8.358000000000000540e+00 -6.169100000000000250e+00 3.642799999999999727e+01 -3.390934000000000026e+01 -4.179012622456782511e-01
-8.355999999999999872e+00 -2.235999999999999943e+01 4.983299999999999841e+01 4.993369999999999642e+00 -3.499999999999999778e-01
-8.355299999999999727e+00 1.413499999999999979e+01 3.801899999999999835e+01 -2.232635000000000147e+00 -2.568098342283473556e-01
-8.354699999999999349e+00 -1.568800000000000061e+01 6.686599999999999966e+01 6.381750000000000256e+00 -3.839796857610734970e-01
-8.352800000000000225e+00 -4.451900000000000190e+00 6.557599999999999341e+01 1.774702999999999875e+01 -4.169198096754388461e-01
-8.352000000000000313e+00 -5.762999999999999901e+00 4.416799999999999926e+01 1.201369000000000042e+01 -3.830153528185954448e-01
-8.351599999999999469e+00 -6.442700000000000315e+00 7.559399999999999409e+01 7.239267999999999814e-01 -3.834012359250733026e-01
-8.351000000000000867e+00 9.330300000000000260e-01 7.260599999999999454e+01 4.023752999999999957e+01 -3.831125074196593538e-01
-8.345599999999999241e+00 -1.175400000000000000e+00 9.532199999999999562e+00 2.014736999999999867e+01 -2.923872222000233889e-01
-8.336100000000000065e+00 -4.942300000000000360e+00 1.841600000000000037e+01 1.999622000000000099e+01 -1.725151713886564908e-01
-8.333700000000000330e+00 3.203300000000000036e+00 1.550000000000000000e+01 -1.956841000000000008e+01 -3.131579050598226610e-01
-8.332200000000000273e+00 -2.669000000000000039e+00 4.404500000000000171e+01 -2.450457000000000107e+01 -3.830959162412382879e-01
-8.329000000000000625e+00 -3.937100000000000044e+00 4.490400000000000347e+01 -2.477120999999999995e+01 -3.830872908462879534e-01
-8.328300000000000480e+00 -1.500399999999999956e+01 1.738200000000000145e+01 4.819549999999999557e+00 -1.934772730099273697e-01
-8.327099999999999724e+00 3.074699999999999989e+00 1.641199999999999903e+01 9.041470000000000340e-01 -3.125854766325885659e-01
-8.327099999999999724e+00 3.074699999999999989e+00 1.727700000000000102e+01 2.650523999999999880e+00 -3.124432251525882109e-01
-8.325900000000000745e+00 -1.413700000000000045e+01 6.750600000000000023e+01 5.599422999999999817e+00 -3.839108724233398773e-01
-8.323399999999999466e+00 -5.146499999999999631e+00 1.753000000000000114e+01 2.423196000000000083e+01 -1.708048118967189499e-01
-8.317999999999999616e+00 1.441999999999999993e+01 3.721300000000000097e+01 3.304173000000000027e+00 -2.569686210864040588e-01
-8.316399999999999793e+00 -2.312099999999999866e+01 5.662599999999999767e+01 9.205102000000000118e+00 -3.500000000000000333e-01
-8.313299999999999912e+00 -2.494299999999999962e+00 3.877400000000000091e+01 -2.137939000000000078e+01 -3.828794775224153013e-01
-8.312500000000000000e+00 1.904800000000000049e+00 1.177899999999999991e+01 2.163370000000000015e+00 -3.103407746444238891e-01
-8.308400000000000674e+00 -2.520399999999999974e+00 1.035599999999999987e+01 1.575483999999999973e+01 -1.432006526160450322e-01
-8.308299999999999130e+00 2.627899999999999903e+00 7.928000000000000114e+01 3.964468000000000103e+00 -3.830259231208180126e-01
-8.308299999999999130e+00 4.240099999999999980e+00 7.928000000000000114e+01 2.091706999999999983e+00 -3.830063208078751114e-01
-8.304600000000000648e+00 3.846499999999999919e-01 7.872299999999999898e+01 -9.399482000000000781e+00 -3.830589388215728808e-01
-8.301000000000000156e+00 -6.263200000000000323e+00 3.552600000000000335e+01 -6.234181999999999668e+00 -4.179454123907501151e-01
-8.299200000000000799e+00 1.667100000000000026e+00 7.947400000000000375e+01 3.807679999999999865e+01 -3.830368358516341720e-01
-8.298000000000000043e+00 -8.350300000000000722e+00 4.516499999999999915e+01 1.275427000000000088e+00 -4.177535478339602371e-01
-8.298000000000000043e+00 -8.350300000000000722e+00 4.603000000000000114e+01 -5.230436000000000085e+00 -3.830722865760911033e-01
-8.296200000000000685e+00 -1.536399999999999988e+00 4.242099999999999937e+01 -1.611785000000000068e+01 -3.830706308539665317e-01
-8.296200000000000685e+00 -1.536399999999999988e+00 4.328699999999999903e+01 -1.456805999999999912e+01 -3.831006457443404400e-01
-8.294600000000000861e+00 -5.995400000000000063e+00 4.498299999999999699e+01 -1.436550999999999911e+00 -3.830311327352892148e-01
-8.294399999999999551e+00 -2.336499999999999844e+01 5.395700000000000074e+01 3.997310999999999837e+01 -3.499999999999999778e-01
-8.293799999999999173e+00 -6.792200000000000237e+00 4.401800000000000068e+01 2.433507000000000087e+00 -3.829756544495246384e-01
-8.292999999999999261e+00 -7.878999999999999559e+00 3.428999999999999915e+01 -1.787900000000000134e+01 -4.181649857892477118e-01
-8.291800000000000281e+00 -2.500900000000000034e+01 4.905799999999999983e+01 -1.574078000000000088e+01 -3.499999999999999778e-01
-8.291800000000000281e+00 -2.328099999999999881e+01 4.905799999999999983e+01 -4.246891999999999712e+01 -3.500000000000000333e-01
-8.290699999999999292e+00 -2.073499999999999943e+01 7.511700000000000443e+01 -4.651749000000000023e-01 -1.700635395772930047e-01
-8.285999999999999588e+00 -3.638500000000000068e+00 6.040699999999999648e+01 2.529120999999999952e+01 -4.169852653873225568e-01
-8.284700000000000841e+00 -2.473600000000000065e+01 5.424699999999999989e+01 1.577635000000000076e+01 -3.499999999999999778e-01
-8.283099999999999241e+00 -5.017599999999999838e+00 1.563000000000000078e+01 1.226018999999999970e+01 -1.656594535780743505e-01
-8.283099999999999241e+00 -2.752400000000000180e+00 1.563000000000000078e+01 3.069228999999999985e+01 -4.174688347663683130e-01
-8.279600000000000293e+00 -1.782799999999999940e+01 5.120499999999999829e+01 2.349369000000000085e+01 -3.840432631659786988e-01
-8.276999999999999247e+00 4.282399999999999984e+00 5.695000000000000284e+01 -1.540197999999999956e+00 -3.833797077269162079e-01
-8.275700000000000500e+00 -1.239700000000000024e+01 4.654699999999999704e+01 -8.546289999999999443e-02 -3.834889352814035979e-01
-8.267899999999999139e+00 -1.726899999999999835e+01 1.851999999999999957e+01 1.684732999999999947e+01 -1.972988161196010393e-01
-8.266000000000000014e+00 -1.359999999999999964e+01 2.538400000000000034e+01 1.365517999999999965e+01 -1.910709839120965370e-01
-8.265700000000000713e+00 1.621199999999999974e+01 3.128099999999999881e+01 7.709951000000000443e-01 -2.576214036022220766e-01
-8.265299999999999869e+00 -1.641000000000000014e+01 2.598799999999999955e+01 -1.730906999999999840e+01 -3.840612457314050987e-01
-8.265299999999999869e+00 -1.489000000000000057e+01 2.598799999999999955e+01 -2.599764000000000053e+01 -1.926059205040163147e-01
-8.264400000000000190e+00 -2.926500000000000057e+01 6.259799999999999898e+01 1.601465999999999923e+01 -3.499999999999999778e-01
-8.255000000000000782e+00 1.282199999999999918e+01 2.710800000000000054e+01 5.492286000000000001e+00 -2.920675383990033458e-01
-8.250000000000000000e+00 -1.338100000000000023e+01 1.375900000000000034e+01 7.485762000000000249e+00 -1.914944584657726767e-01
-8.247999999999999332e+00 -1.425600000000000023e+01 1.544100000000000072e+01 5.704977000000000409e+00 -1.927991055291356226e-01
-8.247099999999999653e+00 -3.884999999999999787e+00 1.487199999999999989e+01 9.074863999999999464e+01 -1.620245903622990202e-01
-8.244300000000000850e+00 -3.212600000000000122e+00 5.979399999999999693e+01 1.216253999999999991e+01 -4.169794272780578126e-01
-8.237600000000000477e+00 -7.852900000000000436e-01 7.866599999999999682e+01 -3.657184000000000168e+01 -3.830786471819437322e-01
-8.225099999999999412e+00 -4.393600000000000172e+00 4.574799999999999756e+01 -1.434009999999999962e+01 -3.830897657559003688e-01
-8.222400000000000375e+00 4.269300000000000317e+00 1.811199999999999832e+01 -3.044162000000000035e+00 -3.143134304122127132e-01
-8.221899999999999764e+00 1.549000000000000021e+01 3.462800000000000011e+01 1.734835999999999956e+01 -2.572348937894253784e-01
-8.217299999999999827e+00 9.387000000000000455e+00 4.743299999999999983e+01 1.922702999999999918e+01 -3.836101504599268575e-01
-8.214900000000000091e+00 -1.376299999999999990e+01 1.451600000000000001e+01 4.564448999999999756e+00 -1.920561079434991436e-01
-8.210499999999999687e+00 -2.294000000000000039e+00 5.931300000000000239e+01 1.523610000000000042e+01 -4.169447880878690005e-01
-8.209300000000000708e+00 -5.272999999999999687e+00 7.842600000000000193e+01 -1.820794000000000068e+01 -3.833161576606254339e-01
-8.200100000000000833e+00 1.046100000000000030e+01 4.650099999999999767e+01 3.063467999999999947e+01 -3.836810403790142932e-01
-8.199999999999999289e+00 -1.428599999999999959e+01 4.923799999999999955e+01 2.012713000000000196e+00 -3.837256807119772128e-01
-8.198199999999999932e+00 -8.051000000000000156e+00 9.710900000000000531e+00 2.846153000000000155e-01 -1.576728805736611894e-01
-8.196600000000000108e+00 -1.944099999999999939e+00 4.389200000000000301e+01 -1.214508999999999972e+01 -3.830960498941871073e-01
-8.196500000000000341e+00 1.927999999999999936e+00 7.509099999999999397e+01 1.074188000000000009e+01 -3.830798889656449324e-01
-8.195999999999999730e+00 -2.079500000000000171e+01 5.147699999999999676e+01 -2.581913999999999820e+00 -3.499999999999999778e-01
-8.192000000000000171e+00 -1.051999999999999957e+01 7.333599999999999852e+01 2.762478000000000211e+00 -3.836903491765817908e-01
-8.188299999999999912e+00 -7.055600000000000094e+00 9.735799999999999343e+00 -1.211290999999999896e+00 -1.493849781453553682e-01
-8.185000000000000497e+00 -2.247800000000000153e+01 7.665200000000000102e+01 -4.369432999999999900e+00 -1.702271089604882048e-01
-8.183999999999999275e+00 -2.277400000000000091e+01 6.979800000000000182e+01 7.767109999999999737e+00 -1.697712397712685672e-01
-8.183699999999999974e+00 -9.455899999999999750e+00 3.378600000000000136e+01 -3.774662999999999879e+00 -1.908312562151920633e-01
-8.179399999999999338e+00 -6.018699999999999939e+00 4.589099999999999824e+01 -2.326642999999999972e+01 -3.830478602901188356e-01
-8.178000000000000824e+00 -2.573600000000000065e+01 5.987100000000000222e+01 -8.282445000000000501e-01 -3.499999999999999778e-01
-8.175300000000000011e+00 -1.160200000000000031e+01 7.255500000000000682e+01 -2.261432999999999804e+00 -3.837751515342568975e-01
-8.172200000000000131e+00 -2.222200000000000131e+01 7.600499999999999545e+01 -5.407402000000000264e+00 -1.701731351303180650e-01
-8.172100000000000364e+00 -1.437899999999999956e+01 1.635300000000000153e+01 7.926694000000000351e+00 -1.924699537133124083e-01
-8.168400000000000105e+00 5.373199999999999754e+00 1.914300000000000068e+01 -5.551397999999999833e+00 -3.155316636613902936e-01
-8.166900000000000048e+00 -1.200900000000000034e+01 2.752499999999999858e+01 -1.310769000000000073e+00 -1.901282605003772053e-01
-8.163299999999999557e+00 -6.692000000000000171e+00 3.489000000000000057e+01 -3.441600000000000215e+00 -4.180128192694526068e-01
-8.163000000000000256e+00 -1.206499999999999950e+01 2.665099999999999980e+01 -1.146302999999999983e+01 -1.898414828575029079e-01
-8.161099999999999355e+00 4.371699999999999697e+00 5.610000000000000142e+01 -8.380570000000000519e+00 -4.168965576292570918e-01
-8.160000000000000142e+00 -2.192800000000000082e+01 5.071900000000000119e+01 2.501577999999999946e+01 -3.499999999999999778e-01
-8.158699999999999619e+00 8.160399999999999210e+00 4.894800000000000040e+01 4.318174000000000179e-01 -3.835258522608878673e-01
-8.158699999999999619e+00 8.160399999999999210e+00 4.981300000000000239e+01 -4.149462999999999901e+00 -4.172355733565587532e-01
-8.156000000000000583e+00 -2.362199999999999989e+01 6.746800000000000352e+01 5.488400999999999641e+00 -3.499999999999999223e-01
-8.153700000000000614e+00 9.207399999999999807e+00 2.495799999999999841e+01 7.644098999999999755e+00 -2.884096389339577682e-01
-8.151600000000000179e+00 8.589499999999999247e+00 2.189900000000000091e+01 3.529422999999999977e+00 -2.875905589953961505e-01
-8.150000000000000355e+00 -1.259099999999999930e+01 3.277799999999999869e+01 1.800866999999999996e+00 -3.831677564373964229e-01
-8.148999999999999133e+00 -4.722000000000000419e+00 6.339800000000000324e+01 3.796293000000000006e+01 -4.169801286089754866e-01
-8.148699999999999832e+00 4.939000000000000057e+00 7.584499999999999886e+01 -9.178236999999999313e+00 -3.830348889722183237e-01
-8.148699999999999832e+00 4.939000000000000057e+00 7.830500000000000682e+01 -4.238222999999999985e+01 -3.830145572749207306e-01
-8.147299999999999542e+00 -2.376800000000000068e+01 6.850499999999999545e+01 -4.658497999999999806e-02 -3.499999999999999778e-01
-8.146000000000000796e+00 -2.104299999999999837e+00 1.747599999999999909e+01 2.869031000000000020e+01 -4.173616192098335564e-01
-8.146000000000000796e+00 -2.104299999999999837e+00 1.834199999999999875e+01 2.725963000000000136e+01 -4.174442179973961720e-01
-8.145300000000000651e+00 1.183000000000000052e+00 9.266299999999999315e+00 -3.049164999999999903e+00 -2.025684216457853404e-01
-8.141999999999999460e+00 -2.460300000000000153e+01 5.911299999999999955e+01 3.474813999999999847e+00 -3.499999999999999778e-01
-8.141999999999999460e+00 -2.427799999999999869e+01 5.837500000000000000e+01 4.546913000000000205e-01 -3.499999999999999778e-01
-8.135699999999999932e+00 -1.111999999999999922e+01 4.653799999999999670e+01 8.195610000000000284e+00 -3.833420985879247844e-01
-8.131000000000000227e+00 -5.345699999999999896e+00 1.107799999999999940e+01 3.992497999999999880e+00 -1.480897857196455114e-01
-8.130300000000000082e+00 -2.859100000000000108e+01 6.464300000000000068e+01 2.270290000000000141e+00 -3.499999999999999778e-01
-8.130300000000000082e+00 -2.689099999999999824e+01 6.464300000000000068e+01 1.175408999999999970e+01 -3.500000000000000333e-01
-8.124900000000000233e+00 -2.543799999999999883e+01 4.984199999999999875e+01 -6.141262000000000110e-02 -3.499999999999999778e-01
-8.121100000000000207e+00 -5.715300000000000047e+00 4.659100000000000108e+01 -2.751452000000000098e+01 -3.830709791688516885e-01
-8.121100000000000207e+00 -4.849999999999999645e+00 4.659100000000000108e+01 -2.014273000000000025e+01 -3.830922731969349515e-01
-8.121000000000000441e+00 1.365799999999999947e+01 2.952199999999999847e+01 1.445255000000000045e+01 -2.921253707792930698e-01
-8.120300000000000296e+00 3.563699999999999868e+00 1.316300000000000026e+01 -8.330192000000000263e+00 -3.153564064636982245e-01
-8.120300000000000296e+00 3.563699999999999868e+00 1.468299999999999983e+01 -1.369562999999999953e+01 -3.143437327058720143e-01
-8.118000000000000327e+00 -2.225499999999999901e+01 6.402700000000000102e+01 1.570762000000000036e+01 -3.500000000000000333e-01
-8.118000000000000327e+00 -2.225499999999999901e+01 6.549899999999999523e+01 4.042632000000000225e+00 -3.499999999999999778e-01
-8.118000000000000327e+00 -2.204599999999999937e+01 6.476300000000000523e+01 6.852533000000000207e+00 -3.499999999999999778e-01
-8.117300000000000182e+00 -7.767000000000000348e+00 7.512399999999999523e+01 -4.290392999999999901e+00 -3.834959314756141158e-01
-8.115899999999999892e+00 -4.286100000000000243e+00 3.642799999999999727e+01 -1.250619999999999976e+01 -3.826305456695956453e-01
-8.115899999999999892e+00 -4.076999999999999957e+00 3.569200000000000017e+01 -8.855442000000000036e+00 -3.825840830395254022e-01
-8.115899999999999892e+00 -2.886099999999999888e+00 3.502799999999999869e+01 -6.640340000000000131e+00 -3.825848184730703538e-01
-8.115899999999999892e+00 -1.695200000000000040e+00 3.569200000000000017e+01 -1.286945000000000050e+01 -3.826908415875117098e-01
-8.115899999999999892e+00 -1.695200000000000040e+00 3.716400000000000148e+01 -2.097251999999999938e+01 -3.827883578960312727e-01
-8.115899999999999892e+00 -1.486099999999999977e+00 3.642799999999999727e+01 -2.261026000000000025e+01 -3.827508448457455081e-01
-8.115600000000000591e+00 -1.973799999999999955e+01 7.839000000000000057e+01 -7.889097999999999900e+01 -1.702037695138604034e-01
-8.113500000000000156e+00 -4.843099999999999739e+00 6.432200000000000273e+01 1.121907000000000032e+01 -4.169689387572211858e-01
-8.109999999999999432e+00 -3.237000000000000099e+00 1.910000000000000142e+01 2.137755999999999901e+01 -4.179396234499017093e-01
-8.108999999999999986e+00 -2.914300000000000068e+01 6.089800000000000324e+01 5.851926999999999879e+00 -3.499999999999999778e-01
-8.108999999999999986e+00 -2.903200000000000003e+01 6.169599999999999795e+01 7.582628999999999841e+00 -3.500000000000000333e-01
-8.108999999999999986e+00 -2.891600000000000037e+01 6.009899999999999665e+01 9.186594000000000149e-01 -3.499999999999999778e-01
-8.108999999999999986e+00 -2.762300000000000111e+01 5.937800000000000011e+01 -8.981257000000000268e-01 -3.499999999999999778e-01
-8.107400000000000162e+00 6.729800000000000226e-01 7.417100000000000648e+01 1.147303999999999924e+01 -3.831140816801107407e-01
-8.105299999999999727e+00 -1.892200000000000060e+01 6.962900000000000489e+01 1.058287999999999940e+01 -1.695274807468742373e-01
-8.105299999999999727e+00 -1.764000000000000057e+01 6.692499999999999716e+01 3.891151999999999944e+00 -3.840432197537223535e-01
-8.104900000000000659e+00 3.590199999999999836e+00 7.923199999999999932e+01 -5.798628000000000116e-02 -3.830265508642131111e-01
-8.103699999999999903e+00 -1.698900000000000077e+01 6.598900000000000432e+01 2.711586000000000052e+00 -3.840158988789557637e-01
-8.103500000000000369e+00 -1.294100000000000072e+01 7.066299999999999670e+01 1.747982000000000014e+01 -3.838530811241255281e-01
-8.102999999999999758e+00 8.656000000000000583e+00 5.446999999999999886e+01 -4.457484000000000179e+01 -4.171279462408562511e-01
-8.102999999999999758e+00 9.000199999999999534e+00 5.120199999999999818e+01 -2.035996000000000095e+01 -4.172351001257035286e-01
-8.102999999999999758e+00 9.948999999999999844e+00 5.215100000000000335e+01 -4.356452999999999776e+01 -3.835534347254579979e-01
-8.102999999999999758e+00 9.948999999999999844e+00 5.374900000000000233e+01 -6.080190999999999946e+01 -3.834912672651728527e-01
-8.102999999999999758e+00 1.017600000000000016e+01 5.295000000000000284e+01 -2.699769999999999825e+01 -3.835244190847562074e-01
-8.102299999999999613e+00 1.465000000000000080e+00 5.875800000000000267e+01 4.775166999999999717e+00 -3.834099871994600672e-01
-8.102299999999999613e+00 3.165000000000000036e+00 5.875800000000000267e+01 2.544634999999999891e+01 -3.833693713841645478e-01
-8.101300000000000168e+00 -2.232400000000000162e+01 5.651500000000000057e+01 1.319364999999999988e+01 -3.499999999999999778e-01
-8.099700000000000344e+00 -7.439999999999999947e-01 5.883899999999999864e+01 4.160925000000000296e+01 -3.833878633116327705e-01
-8.097699999999999676e+00 -1.463100000000000023e+01 1.798600000000000065e+01 5.193317000000000405e+00 -1.923061263157141432e-01
-8.096700000000000230e+00 1.583900000000000086e+00 6.989400000000000546e+01 -1.377232999999999929e+00 -3.831584182448491416e-01
-8.095299999999999940e+00 -3.475000000000000089e+00 7.969400000000000261e+01 -1.511436999999999919e+01 -3.832161478091279938e-01
-8.095299999999999940e+00 -1.955000000000000071e+00 7.969400000000000261e+01 -5.236307999999999652e+01 -3.831356113091511917e-01
-8.092900000000000205e+00 -2.120100000000000051e+01 7.036400000000000432e+01 6.265534999999999854e+00 -1.697103353910694723e-01
-8.091900000000000759e+00 -1.362599999999999945e+01 6.823699999999999477e+01 -3.345422000000000118e+00 -3.838726967943399959e-01
-8.087699999999999889e+00 -9.190899999999999181e+00 7.431199999999999761e+01 3.514253000000000071e+00 -3.835954085099145261e-01
-8.086899999999999977e+00 -1.947100000000000053e+00 4.168399999999999750e+01 -3.448933999999999944e+00 -3.830013966567701322e-01
-8.085900000000000531e+00 1.403999999999999915e+01 3.027899999999999991e+01 1.674598999999999904e+01 -2.922256672708831715e-01
-8.084099999999999397e+00 -3.358800000000000119e-01 9.167899999999999494e+00 2.216327000000000158e+00 -2.981567168444909099e-01
-8.083999999999999631e+00 -1.522799999999999976e+01 1.858999999999999986e+01 5.250001000000000140e+00 -1.933583299640344033e-01
-8.083600000000000563e+00 1.365699999999999914e+00 7.190600000000000591e+01 1.872529000000000110e+01 -3.831340434345111845e-01
-8.081599999999999895e+00 1.116600000000000037e+01 4.528999999999999915e+01 1.048623000000000083e+01 -2.893381808924747611e-01
-8.076700000000000657e+00 1.355700000000000038e+01 2.870200000000000173e+01 1.943119000000000085e+01 -2.921854849528218168e-01
-8.072699999999999321e+00 -9.829999999999999849e-01 6.748699999999999477e+01 1.217670000000000030e+01 -3.832459601059913235e-01
-8.071999999999999176e+00 -8.614499999999999602e+00 4.439000000000000057e+01 2.119855999999999963e+00 -4.177901048511810655e-01
-8.065500000000000114e+00 -1.215399999999999991e+01 1.154499999999999993e+01 -2.414503999999999984e+00 -1.890309966915916795e-01
-8.065500000000000114e+00 -1.124699999999999989e+01 1.154499999999999993e+01 9.755568999999999491e+00 -1.835448441120003937e-01
-8.061299999999999244e+00 -1.286299999999999955e+01 3.218200000000000216e+01 -2.851820999999999939e-01 -3.831884281730780772e-01
-8.060999999999999943e+00 -4.069700000000000095e+00 6.645300000000000296e+01 2.200384000000000029e+01 -4.169017888455869847e-01
-8.057000000000000384e+00 3.893100000000000005e+00 1.392300000000000004e+01 -2.615787999999999869e+01 -3.156124080162187595e-01
-8.055199999999999250e+00 -1.236400000000000077e+01 2.836400000000000077e+01 -4.840569000000000122e-01 -1.907421145044815580e-01
-8.054000000000000270e+00 5.545399999999999885e+00 5.518500000000000227e+01 -9.374753999999999365e+00 -4.169659609969699754e-01
-8.052099999999999369e+00 -1.313700000000000045e+01 3.126999999999999957e+01 -5.494390999999999858e-02 -3.832212113432148515e-01
-8.051399999999999224e+00 -1.245400000000000063e+01 2.600000000000000000e+01 -4.392713999999999785e+00 -1.899843999235674985e-01
-8.050900000000000389e+00 -1.309500000000000064e+01 7.193800000000000239e+01 3.077392000000000127e+00 -3.838589755054940822e-01
-8.049400000000000333e+00 -2.487000000000000099e+00 1.691000000000000014e+01 2.967113000000000156e+01 -4.174683545018155750e-01
-8.047599999999999199e+00 -1.026099999999999923e+01 4.664399999999999835e+01 7.969210000000000349e+00 -3.832494844124024747e-01
-8.047599999999999199e+00 -9.395400000000000418e+00 4.664399999999999835e+01 5.452204000000000050e+00 -3.831660905138448703e-01
-8.046699999999999520e+00 -1.877799999999999869e+01 7.583599999999999852e+01 -9.704684000000000310e+00 -1.699867253693057301e-01
-8.046699999999999520e+00 -1.877799999999999869e+01 7.753600000000000136e+01 -1.931394999999999840e+01 -1.701001469066744654e-01
-8.046200000000000685e+00 -2.249500000000000099e+01 5.413199999999999790e+01 1.425609000000000037e+01 -3.499999999999999778e-01
-8.045099999999999696e+00 2.337400000000000144e+00 1.247899999999999920e+01 1.112551999999999985e+01 -3.115051487664330376e-01
-8.042299999999999116e+00 -5.161299999999999777e+00 1.616900000000000048e+01 2.629628999999999905e+01 -1.675450564466434422e-01
-8.042299999999999116e+00 -5.161299999999999777e+00 1.703500000000000014e+01 2.634282999999999930e+01 -1.697641428423242171e-01
-8.041999999999999815e+00 1.767200000000000104e+00 7.073399999999999466e+01 2.122130999999999879e-01 -3.831471182636271289e-01
-8.041700000000000514e+00 -2.643299999999999983e+00 6.734600000000000364e+01 2.168630999999999887e+01 -4.168330396973044527e-01
-8.035299999999999443e+00 6.517000000000000348e+00 5.499699999999999989e+01 -8.970596999999999710e+00 -4.170152301390981364e-01
-8.035000000000000142e+00 -8.797100000000000364e+00 1.017999999999999972e+01 3.388330999999999982e-01 -1.654830600096486859e-01
-8.034299999999999997e+00 -1.679000000000000048e+00 1.034699999999999953e+01 2.173547999999999902e+01 -1.458715002970697450e-01
-8.033099999999999241e+00 -5.431899999999999729e+00 3.642799999999999727e+01 -2.332714999999999961e+01 -4.178274301324750861e-01
-8.026999999999999247e+00 1.636899999999999977e+01 3.410399999999999920e+01 -1.932260000000000133e+01 -2.573402245621502216e-01
-8.019899999999999807e+00 2.577500000000000124e+00 1.521499999999999986e+01 -3.034775999999999918e+00 -3.113581049212238994e-01
-8.016999999999999460e+00 -1.556900000000000084e+01 5.116700000000000159e+01 3.261267000000000138e+00 -3.838382653898506636e-01
-8.013999999999999346e+00 -1.445800000000000018e+01 4.834599999999999653e+01 -1.373408000000000051e+01 -3.836910208365018615e-01
-8.012299999999999756e+00 -4.433699999999999974e+00 1.099499999999999922e+01 -7.216671999999999976e+00 -1.463070304904797725e-01
-8.010999999999999233e+00 7.280000000000000249e+00 2.086499999999999844e+01 7.805709000000000231e+00 -3.171286356763952097e-01
-8.003500000000000725e+00 -1.631700000000000017e+01 1.846499999999999986e+01 9.611319999999999197e+00 -1.955356724617442754e-01
-8.002299999999999969e+00 3.485300000000000065e+00 1.801200000000000045e+01 5.766179000000000165e-01 -3.799626535515050474e-01
-7.998700000000000365e+00 2.661399999999999988e+00 1.308799999999999919e+01 8.614340000000000330e+00 -3.123239259173299920e-01
-7.995599999999999596e+00 1.260999999999999943e+01 4.425000000000000000e+01 1.569941000000000031e+01 -2.899195964660390978e-01
-7.990999999999999659e+00 -2.406500000000000128e+01 5.401500000000000057e+01 7.636525000000000318e+01 -3.499999999999999778e-01
-7.987000000000000099e+00 1.584999999999999964e+00 3.405899999999999750e+01 -4.134393000000000207e+00 -3.827195527754579385e-01
-7.980299999999999727e+00 -2.200300000000000011e+01 7.890099999999999625e+01 -5.526745999999999981e+01 -1.703111086279068820e-01
-7.979300000000000281e+00 -1.311500000000000021e+01 6.892100000000000648e+01 8.237937000000000509e+00 -3.838449571045673969e-01
-7.977500000000000036e+00 -3.179800000000000182e+00 4.483599999999999852e+01 -3.123852000000000118e+01 -3.830656987529812985e-01
-7.976099999999999746e+00 -1.697800000000000153e+01 2.528900000000000148e+01 -4.355449000000000126e+00 -3.841459815195542582e-01
-7.975900000000000212e+00 -1.840899999999999892e+01 7.668600000000000705e+01 6.057258000000000031e+00 -1.700182342279319692e-01
-7.974800000000000111e+00 -5.735299999999999621e+00 3.572800000000000153e+01 -1.098973999999999940e+01 -4.178802526423572306e-01
-7.972900000000000098e+00 2.619600000000000151e+00 1.469100000000000072e+01 -1.109497999999999962e+01 -3.115644649419184731e-01
-7.966499999999999915e+00 1.668400000000000105e+01 3.345700000000000074e+01 -3.142050000000000054e+01 -2.574235919250058569e-01
-7.966199999999999726e+00 -1.316999999999999993e+01 4.650699999999999790e+01 -9.365128000000000341e+00 -3.835104331669229039e-01
-7.956299999999999706e+00 -1.416499999999999915e+01 4.653199999999999648e+01 -1.840184000000000042e+00 -3.836042804415081831e-01
-7.955000000000000071e+00 -4.690699999999999648e+00 6.115899999999999892e+01 2.212484999999999857e+01 -4.170352389286794970e-01
-7.954600000000000115e+00 -1.094800000000000040e+01 3.324399999999999977e+01 1.441413999999999973e+01 -1.914369311156285114e-01
-7.954600000000000115e+00 -1.008300000000000018e+01 3.324399999999999977e+01 -1.243621000000000087e+01 -1.909481105607266360e-01
-7.954100000000000392e+00 1.435800000000000054e+01 3.907800000000000296e+01 3.815509999999999735e-01 -2.910372040650884284e-01
-7.953400000000000247e+00 -1.502299999999999969e+01 5.052499999999999858e+01 3.112328999999999901e+00 -3.837761539744775074e-01
-7.952200000000000379e+00 -3.495000000000000107e+00 1.089600000000000080e+01 -1.572208999999999968e+00 -1.456570436156217618e-01
-7.950999999999999623e+00 4.524199999999999888e-01 3.481700000000000017e+01 -7.793530999999999764e+00 -3.827050355041756724e-01
-7.950999999999999623e+00 2.717699999999999783e+00 3.481700000000000017e+01 3.818808999999999898e+00 -3.828280723128588692e-01
-7.949900000000000411e+00 -2.969700000000000006e+00 1.613599999999999923e+01 3.062376000000000076e+01 -4.176153934956515212e-01
-7.943699999999999761e+00 -1.495299999999999940e+01 6.730700000000000216e+01 4.419202000000000297e+00 -3.839155050778981226e-01
-7.943100000000000271e+00 4.466499999999999915e-01 7.282899999999999352e+01 2.596149000000000129e+01 -3.831456921154357542e-01
-7.943100000000000271e+00 4.466499999999999915e-01 7.369400000000000261e+01 1.147303999999999924e+01 -3.831344285755561296e-01
-7.942999999999999616e+00 -4.721799999999999997e+00 6.224699999999999989e+01 2.543859000000000137e+01 -4.170131407892646580e-01
-7.942599999999999660e+00 1.110399999999999920e+01 4.706799999999999784e+01 7.229581999999999731e+00 -2.892473090246291401e-01
-7.940500000000000114e+00 -2.368400000000000105e+01 5.743200000000000216e+01 7.383150999999999797e+00 -3.499999999999999778e-01
-7.938399999999999679e+00 -2.471099999999999852e+01 6.186899999999999977e+01 2.085293000000000063e+01 -3.499999999999999778e-01
-7.938399999999999679e+00 -2.331099999999999994e+01 6.186899999999999977e+01 2.422073999999999927e+01 -3.499999999999999778e-01
-7.937100000000000044e+00 -1.565000000000000036e+01 2.616700000000000159e+01 -5.070580999999999960e+01 -3.837535843450484707e-01
-7.934999999999999609e+00 8.256099999999999994e+00 2.576099999999999923e+01 5.955917000000000350e+00 -2.870303968641396142e-01
-7.934999999999999609e+00 8.256099999999999994e+00 2.662699999999999889e+01 -4.309455999999999953e+00 -2.870874422164064743e-01
-7.934999999999999609e+00 9.608399999999999608e+00 2.397200000000000131e+01 2.023582999999999910e+00 -2.887340068014936922e-01
-7.932299999999999685e+00 5.985699999999999577e+00 1.998999999999999844e+01 -6.348535000000000039e+00 -3.159854735600921005e-01
-7.929199999999999804e+00 -6.291299999999999670e+00 3.513700000000000045e+01 -3.754081999999999919e+00 -4.179573389933125549e-01
-7.927699999999999747e+00 9.747400000000000730e+00 2.770400000000000063e+01 -1.853232999999999908e+00 -2.887225649691363971e-01
-7.927699999999999747e+00 -7.179000000000000270e+00 3.444599999999999795e+01 -2.171395000000000053e+01 -4.180779861701046651e-01
-7.926099999999999923e+00 -1.255700000000000038e+01 1.204599999999999937e+01 8.941729000000000482e+00 -1.902311978552594374e-01
-7.925900000000000389e+00 -1.417999999999999972e+01 1.717999999999999972e+01 1.198643999999999998e+01 -1.914980369912471780e-01
-7.921299999999999564e+00 9.972099999999999298e+00 4.735699999999999932e+01 1.588480999999999987e+01 -3.836048369032874494e-01
-7.918999999999999595e+00 -5.742700000000000138e+00 7.586100000000000421e+01 -9.784715999999999525e+00 -3.833752548373320357e-01
-7.918999999999999595e+00 -5.742700000000000138e+00 7.672599999999999909e+01 -1.156137999999999977e+01 -3.833676019780459798e-01
-7.918999999999999595e+00 -5.742700000000000138e+00 7.766599999999999682e+01 -4.023747000000000185e+00 -3.833596711148778424e-01
-7.918599999999999639e+00 -7.585099999999999731e+00 4.424900000000000233e+01 9.195948999999999929e-01 -4.177344628037006347e-01
-7.917699999999999960e+00 1.449499999999999922e+01 3.976400000000000290e+01 2.592566999999999844e+00 -2.567402330415268774e-01
-7.917600000000000193e+00 -1.973600000000000065e+01 7.575600000000000023e+01 -1.983765000000000112e-01 -1.700046151209672618e-01
-7.915000000000000036e+00 -6.891599999999999948e-01 7.799500000000000455e+01 -3.487984000000000151e+01 -3.831034006374867684e-01
-7.914900000000000269e+00 -1.197499999999999964e+01 3.325699999999999790e+01 5.628519999999999968e+00 -1.920368609899185952e-01
-7.912099999999999689e+00 -2.414499999999999957e+01 4.876200000000000045e+01 -5.492136000000000351e+00 -3.499999999999999778e-01
-7.911800000000000388e+00 -2.953100000000000058e+00 1.084699999999999953e+01 1.018900999999999968e+01 -1.459292018072843033e-01
-7.911100000000000243e+00 -6.565699999999999648e+00 1.046100000000000030e+01 -3.181712000000000096e+00 -1.505120387270142968e-01
-7.910700000000000287e+00 -1.772899999999999920e+01 1.914600000000000080e+01 1.516759000000000057e+01 -1.975443907522013709e-01
-7.902599999999999625e+00 2.769600000000000062e+00 7.898300000000000409e+01 -6.166711000000000276e+00 -3.830506072112677685e-01
-7.899399999999999977e+00 1.081300000000000061e+01 4.620100000000000051e+01 2.035276999999999958e+01 -2.891290656454625907e-01
-7.894599999999999618e+00 -1.772500000000000142e+01 6.598900000000000432e+01 -3.582676000000000194e-01 -3.840307084155146766e-01
-7.893799999999999706e+00 9.524900000000000588e+00 2.302299999999999969e+01 1.808502000000000054e+00 -2.886317157076421780e-01
-7.892599999999999838e+00 -2.149500000000000099e+01 5.141899999999999693e+01 2.027736000000000161e+01 -3.500000000000000333e-01
-7.892599999999999838e+00 -2.009499999999999886e+01 5.141899999999999693e+01 -3.247360000000000024e+00 -3.499999999999999778e-01
-7.892500000000000071e+00 -7.164900000000000269e+00 7.484699999999999420e+01 8.261822000000000443e+00 -3.834722775503500714e-01
-7.892500000000000071e+00 -6.299699999999999633e+00 7.484699999999999420e+01 5.091679000000000066e+00 -3.834196753993069917e-01
-7.890399999999999636e+00 2.828199999999999825e+00 3.560199999999999676e+01 2.102605000000000057e+00 -3.828707795014513193e-01
-7.888600000000000279e+00 -1.389499999999999957e+01 1.798600000000000065e+01 9.290765000000000384e+00 -1.905912174622599042e-01
-7.886899999999999800e+00 -1.623999999999999844e+01 6.604900000000000659e+01 9.161144000000000176e+00 -3.839649765313366547e-01
-7.880899999999999572e+00 1.072899999999999965e+00 7.883199999999999363e+01 -1.811411999999999978e+01 -3.830745353602800218e-01
-7.880700000000000038e+00 -2.003400000000000070e+00 3.837700000000000244e+01 -1.845745000000000147e+01 -3.828094330266218481e-01
-7.880700000000000038e+00 -1.794300000000000006e+00 3.764099999999999824e+01 -2.202455000000000140e+01 -3.827744837870795669e-01
-7.878300000000000303e+00 -2.259600000000000009e+01 6.299199999999999733e+01 1.375604000000000049e+01 -3.500000000000000333e-01
-7.874600000000000044e+00 -2.643599999999999994e+01 5.981300000000000239e+01 -3.498057999999999890e+00 -3.499999999999999778e-01
-7.874600000000000044e+00 -2.503600000000000136e+01 5.981300000000000239e+01 3.943804000000000087e+00 -3.499999999999999778e-01
-7.865400000000000169e+00 -9.050300000000000011e+00 4.629800000000000182e+01 5.452204000000000050e+00 -3.830849359850084790e-01
-7.864399999999999835e+00 1.453200000000000003e+01 3.845199999999999818e+01 2.713776999999999995e-01 -2.911468134487617543e-01
-7.855000000000000426e+00 1.652700000000000058e+00 1.002599999999999980e+01 -1.206784000000000034e+01 -2.056972874590498324e-01
-7.855000000000000426e+00 1.652700000000000058e+00 1.096599999999999930e+01 -2.043031999999999826e+01 -3.092810719615486370e-01
-7.855000000000000426e+00 1.652700000000000058e+00 1.183099999999999952e+01 -1.180780000000000024e-01 -3.088773505063120983e-01
-7.852599999999999802e+00 -1.789399999999999835e+01 2.088200000000000145e+01 8.817175000000000651e+00 -3.846249963449421827e-01
-7.850500000000000256e+00 -4.317599999999999660e+00 1.536299999999999955e+01 3.949817999999999785e+01 -1.643213829985084307e-01
-7.850500000000000256e+00 -3.452399999999999913e+00 1.536299999999999955e+01 4.590867999999999682e+01 -1.636244604269189717e-01
-7.847699999999999676e+00 -2.779999999999999805e+00 5.930299999999999727e+01 1.382831000000000010e+01 -4.169881231556258894e-01
-7.847000000000000419e+00 -1.712800000000000011e+01 5.147200000000000131e+01 4.247590999999999894e+00 -3.839352674865454396e-01
-7.842900000000000205e+00 -2.546099999999999852e+01 5.290200000000000102e+01 3.992051000000000016e+00 -3.500000000000000333e-01
-7.842800000000000438e+00 1.216699999999999982e+01 4.456499999999999773e+01 1.690867000000000075e+01 -2.896745762485117837e-01
-7.839900000000000091e+00 -1.809799999999999898e+01 1.999599999999999866e+01 2.211250000000000071e+01 -1.626538968066074120e-01
-7.838099999999999845e+00 -3.540500000000000203e+00 4.533700000000000330e+01 -2.410025999999999868e+01 -3.830564947168456080e-01
-7.836299999999999599e+00 -1.655600000000000094e+01 6.528900000000000148e+01 6.298327999999999705e+00 -3.839739047152576634e-01
-7.835200000000000387e+00 -4.674299999999999677e+00 6.514499999999999602e+01 1.014840000000000053e+01 -4.169581850263854861e-01
-7.833400000000000141e+00 -1.430000000000000071e+01 2.565099999999999980e+01 -7.326430000000000220e+00 -1.918654338272916260e-01
-7.833400000000000141e+00 -1.290000000000000036e+01 2.565099999999999980e+01 3.216968000000000050e+00 -1.903271313389764408e-01
-7.833000000000000185e+00 1.504000000000000004e+00 3.656600000000000250e+01 -7.655192000000000441e+00 -3.828507347136530514e-01
-7.830400000000000027e+00 -1.419800000000000040e+01 1.868599999999999994e+01 1.047981000000000051e+01 -1.911456603196687587e-01
-7.830000000000000071e+00 3.093999999999999861e+00 1.392300000000000004e+01 -3.143465000000000131e+01 -3.131846382007224538e-01
-7.828000000000000291e+00 -4.321799999999999642e+00 1.785600000000000165e+01 2.361438000000000059e+01 -1.708422044135462781e-01
-7.827600000000000335e+00 -6.045700000000000074e+00 1.101999999999999957e+01 7.901741999999999599e+00 -1.510107265628462814e-01
-7.827099999999999724e+00 1.481700000000000017e+01 3.764600000000000080e+01 6.175602999999999732e+00 -2.569991475084718591e-01
-7.823500000000000121e+00 -3.893699999999999939e+00 1.861400000000000077e+01 2.258768999999999849e+01 -1.721107441082386780e-01
-7.823299999999999699e+00 -8.638999999999999346e+00 3.400000000000000000e+01 -1.386518000000000050e+01 -4.182459700510170464e-01
-7.822400000000000020e+00 1.212199999999999989e+01 2.684100000000000108e+01 2.063718000000000163e+00 -2.910800442306772928e-01
-7.821100000000000385e+00 1.344800000000000040e+01 2.771199999999999974e+01 1.496912000000000020e+01 -1.918843989106706061e-01
-7.817700000000000315e+00 -2.322200000000000131e+01 6.656199999999999761e+01 2.680912999999999879e+00 -3.500000000000000333e-01
-7.817700000000000315e+00 -1.471899999999999942e+01 1.943100000000000094e+01 5.438430999999999926e+01 -1.920795154394023541e-01
-7.816900000000000404e+00 1.851699999999999902e+00 1.496700000000000053e+01 1.640362000000000009e+01 -3.091758028255993662e-01
-7.816600000000000215e+00 -1.566099999999999959e+01 1.928999999999999915e+01 1.623394000000000048e+01 -1.938906116681709535e-01
-7.815900000000000070e+00 4.229999999999999871e-01 9.202999999999999403e+00 -3.859751999999999850e+00 -3.032478574869493793e-01
-7.815100000000000158e+00 1.386600000000000055e-01 5.834300000000000352e+01 2.254563999999999879e+01 -3.833785496442338459e-01
-7.814400000000000013e+00 1.461299999999999955e+01 3.675999999999999801e+01 9.790122000000000213e+00 -2.913627086704193014e-01
-7.812000000000000277e+00 -2.592899999999999849e+01 5.116599999999999682e+01 7.050717999999999819e+00 -3.499999999999999778e-01
-7.812000000000000277e+00 -2.581099999999999994e+01 5.201299999999999812e+01 3.851383999999999919e+00 -3.499999999999999778e-01
-7.812000000000000277e+00 -2.567500000000000071e+01 5.027199999999999847e+01 9.635831000000000257e-01 -3.499999999999999778e-01
-7.811700000000000088e+00 8.509999999999999787e-01 6.913899999999999579e+01 1.252237999999999962e+00 -3.832046170207802360e-01
-7.811700000000000088e+00 -3.912599999999999856e+00 6.006199999999999761e+01 1.127481000000000044e+01 -4.170295846581071331e-01
-7.810299999999999798e+00 1.106400000000000006e+01 2.700600000000000023e+01 -1.659434999999999993e+00 -2.900078616060554060e-01
-7.807100000000000151e+00 -8.746900000000000119e+00 4.559799999999999898e+01 2.947038000000000046e+00 -4.177572574549738293e-01
-7.807000000000000384e+00 -5.559999999999999621e-04 7.811299999999999955e+01 -1.700615000000000165e+01 -3.830996948798525148e-01
-7.804999999999999716e+00 -1.485300000000000065e+00 7.893399999999999750e+01 -5.909720000000000084e+01 -3.831236355427684592e-01
-7.804100000000000037e+00 -4.384500000000000064e+00 7.870399999999999352e+01 -3.926447999999999894e+01 -3.832815323345318270e-01
-7.803899999999999615e+00 1.358500000000000085e+01 2.686299999999999955e+01 5.928987000000000229e+00 -1.920347673509255337e-01
-7.801999999999999602e+00 -2.600299999999999834e+00 4.070600000000000307e+01 -1.213484999999999925e+00 -3.828974048898242666e-01
-7.799999999999999822e+00 -2.376799999999999802e+00 4.438300000000000267e+01 -2.190152000000000143e+01 -3.830527395052464312e-01
-7.796999999999999709e+00 3.713899999999999979e-01 3.580799999999999983e+01 -1.256067000000000000e+01 -3.827415412961480135e-01
-7.796000000000000263e+00 1.545199999999999996e+01 3.099099999999999966e+01 2.440383999999999887e+00 -2.576731643920332493e-01
-7.796000000000000263e+00 1.674500000000000099e+01 3.171199999999999974e+01 -1.046345999999999954e+01 -2.576372228042781987e-01
-7.796000000000000263e+00 1.697200000000000131e+01 3.251100000000000279e+01 -7.901813999999999893e+00 -2.575530643154423927e-01
-7.795799999999999841e+00 -6.687700000000000422e+00 4.532699999999999818e+01 -1.143347999999999942e+01 -3.829701801102666225e-01
-7.793800000000000061e+00 -2.040500000000000114e+01 7.013299999999999557e+01 8.707876999999999867e+00 -1.695968585974921838e-01
-7.793599999999999639e+00 -3.637000000000000011e+00 6.715300000000000580e+01 1.360130999999999979e+01 -4.168844379669462974e-01
-7.784299999999999997e+00 -1.259999999999999964e+01 7.277299999999999613e+01 -8.653178000000000480e+00 -3.838243894272029277e-01
-7.783999999999999808e+00 -1.277999999999999936e+01 2.928000000000000114e+01 3.255532999999999899e-01 -1.913674823970081262e-01
-7.781600000000000072e+00 -1.677100000000000080e+01 1.906599999999999895e+01 6.478680999999999912e+00 -1.959690764751397529e-01
-7.780300000000000438e+00 -1.055199999999999960e+01 1.128599999999999959e+01 1.212663000000000046e+00 -1.793633124395099254e-01
-7.771600000000000286e+00 2.635299999999999976e+00 3.622200000000000131e+01 7.548344000000000165e-01 -3.828758571016622758e-01
-7.771300000000000097e+00 -2.320499999999999829e+01 6.945300000000000296e+01 3.119310000000000027e+00 -3.500000000000000333e-01
-7.766000000000000014e+00 -1.872899999999999920e+01 5.089900000000000091e+01 2.501605000000000079e+00 -3.840350430730673503e-01
-7.765900000000000247e+00 -2.714999999999999858e+00 7.975700000000000500e+01 -4.096461999999999648e+01 -3.831884536326503610e-01
-7.764000000000000234e+00 -1.244099999999999984e+00 4.275900000000000034e+01 -6.361880000000000202e+00 -3.830245313668820262e-01
-7.764000000000000234e+00 -1.244099999999999984e+00 4.362500000000000000e+01 -6.009254999999999569e+00 -3.830559297974324706e-01
-7.762299999999999756e+00 -2.740800000000000125e+00 3.962500000000000000e+01 -1.474541000000000102e+00 -3.828323953332903318e-01
-7.761700000000000266e+00 -1.293099999999999916e+01 3.027299999999999969e+01 1.131423999999999985e+00 -1.917789952430162537e-01
-7.761099999999999888e+00 -1.939499999999999957e+01 7.757699999999999818e+01 -4.209778000000000020e+01 -1.700879846481718749e-01
-7.759999999999999787e+00 8.897000000000000242e+00 4.839800000000000324e+01 2.642314999999999969e+01 -3.835112433480217242e-01
-7.756899999999999906e+00 1.463400000000000034e+01 3.585900000000000176e+01 1.602495000000000047e+01 -2.914613324809802730e-01
-7.752500000000000391e+00 2.144899999999999807e+00 1.591499999999999915e+01 6.578890999999999600e+00 -3.100013249161491791e-01
-7.752200000000000202e+00 -3.746200000000000085e-01 6.821299999999999386e+01 5.361913999999999625e+00 -3.832469903602591654e-01
