2.820599999999999952e+01 -2.612199999999999989e+01 5.531300000000000239e+01 -2.641598000000000113e+00 1.933745815244151123e-01
2.821199999999999974e+01 -2.539699999999999847e+01 6.904099999999999682e+01 1.264189000000000007e+01 2.953603222957074115e-02
2.821699999999999875e+01 -4.787299999999999889e-01 1.352699999999999925e+01 -1.550958999999999932e+01 -4.935914206162904383e-02
2.821699999999999875e+01 -1.777700000000000102e+01 5.283500000000000085e+01 3.478930000000000078e+00 1.925008120628274588e-01
2.822200000000000131e+01 -5.777700000000000058e-01 4.005199999999999960e+01 -1.731699000000000055e+01 7.229822095790368330e-02
2.822200000000000131e+01 -2.272200000000000131e+01 6.935899999999999466e+01 2.647804000000000002e+01 2.848854631543271121e-02
2.822299999999999898e+01 -6.516300000000000203e+00 1.496799999999999997e+01 -1.109431000000000056e+00 -4.648552927301505266e-02
2.823300000000000054e+01 8.597200000000000841e+00 4.910699999999999932e+01 -1.172173000000000087e+01 1.040488052286131782e-01
2.823300000000000054e+01 8.708399999999999253e+00 4.830899999999999750e+01 -7.917359000000000258e+00 1.144285762549893948e-01
2.823400000000000176e+01 -6.052699999999999747e+00 3.658200000000000074e+01 -6.263612000000000180e+00 6.268600247351358012e-02
2.823499999999999943e+01 -2.792099999999999937e+01 5.472500000000000142e+01 1.748564000000000007e+00 1.933669397573160031e-01
2.823699999999999832e+01 -1.268599999999999994e+01 6.764499999999999602e+01 -1.183054000000000050e+00 2.043405004797595528e-02
2.823900000000000077e+01 -1.792800000000000082e+01 5.184199999999999875e+01 -1.191921999999999926e+00 1.923824753827560463e-01
2.824099999999999966e+01 -1.758200000000000074e+01 5.364200000000000301e+01 4.050951000000000413e+00 1.926319973540027153e-01
2.825000000000000000e+01 -2.509299999999999997e+01 5.555700000000000216e+01 1.010253999999999985e+00 1.933945871267295502e-01
2.825199999999999889e+01 1.169599999999999973e+01 2.939900000000000091e+01 -1.666016000000000119e+01 -5.769129186263749487e-02
2.825300000000000011e+01 -5.605800000000000338e+00 1.388000000000000078e+01 -2.961504999999999832e+00 -4.715432388530946262e-02
2.825300000000000011e+01 -5.396700000000000053e+00 1.314400000000000013e+01 -2.455769000000000091e+00 -4.744510813949854439e-02
2.825600000000000023e+01 -1.256700000000000017e+01 5.007999999999999829e+01 1.542767999999999917e+00 1.914465703968211696e-01
2.825700000000000145e+01 9.551999999999999602e+00 4.418900000000000006e+01 -7.483153999999999861e+00 -5.783913422674348548e-03
2.825700000000000145e+01 9.761100000000000776e+00 4.492499999999999716e+01 -1.661646999999999963e+01 1.479635888528159663e-03
2.825700000000000145e+01 9.761100000000000776e+00 4.671300000000000097e+01 1.865571999999999875e+01 2.299569478554632299e-02
2.825700000000000145e+01 1.001500000000000057e+01 4.581900000000000261e+01 -8.448817999999999273e+00 1.221864206254056652e-02
2.825799999999999912e+01 -7.306899999999999729e+00 3.338600000000000279e+01 1.385922000000000098e+00 5.900961909550119650e-02
2.826399999999999935e+01 6.987000000000000099e+00 2.212500000000000000e+01 -6.210049999999999848e+00 -5.232579654525759683e-02
2.826699999999999946e+01 -5.966999999999999638e+00 6.690800000000000125e+01 -1.479612999999999978e+01 1.678949730285504011e-02
2.826699999999999946e+01 -4.447000000000000064e+00 6.690800000000000125e+01 -2.993816999999999950e+01 2.447967981448018540e-02
2.827100000000000080e+01 -3.004500000000000171e+01 5.940599999999999881e+01 -1.805145000000000000e+00 3.088336760649499843e-02
2.827599999999999980e+01 -2.829899999999999949e+01 6.652299999999999613e+01 -7.552728000000000219e-02 3.028892607248007129e-02
2.827599999999999980e+01 -2.829899999999999949e+01 6.748099999999999454e+01 -1.191513000000000044e+00 3.037759454072428908e-02
2.827899999999999991e+01 -6.353600000000000136e+00 2.148300000000000054e+01 -7.801938999999999957e+00 -4.379700776891892744e-02
2.828099999999999881e+01 -7.897000000000000242e+00 4.079899999999999949e+01 1.221171999999999969e+01 -1.198055783152777651e-02
2.828099999999999881e+01 -6.496999999999999886e+00 4.079899999999999949e+01 2.967381000000000046e+00 6.153922181627916738e-02
2.828300000000000125e+01 -9.725099999999999412e+00 4.842900000000000205e+01 4.478982000000000241e+00 2.797715429629082928e-01
2.828399999999999892e+01 1.218699999999999939e+01 2.826899999999999835e+01 -1.780114000000000019e+01 -5.858947963100873124e-02
2.828500000000000014e+01 -1.120899999999999963e+01 3.344800000000000040e+01 -3.352609999999999957e+01 5.764989778049357805e-02
2.828500000000000014e+01 -9.916000000000000369e+00 3.112900000000000134e+01 -1.787722000000000033e+00 5.648216682664602972e-02
2.828600000000000136e+01 -1.731899999999999906e+01 4.974799999999999756e+01 -1.692499999999999893e+00 1.920828643240702627e-01
2.828600000000000136e+01 -1.579899999999999949e+01 4.974799999999999756e+01 -1.409627000000000052e+01 1.919000665889558366e-01
2.828600000000000136e+01 1.045700000000000074e+01 3.398799999999999955e+01 -4.563238000000000127e+00 -5.292438546179401015e-02
2.828600000000000136e+01 1.045700000000000074e+01 3.702799999999999869e+01 3.087393000000000143e+01 -4.878701635790921171e-02
2.828600000000000136e+01 1.175000000000000000e+01 3.470900000000000318e+01 -1.121372000000000035e+01 -5.666014118051668907e-02
2.828600000000000136e+01 1.175000000000000000e+01 3.630700000000000216e+01 -4.596705000000000041e+00 -5.543540890915230751e-02
2.828600000000000136e+01 1.197700000000000031e+01 3.550800000000000267e+01 -2.687239999999999895e+01 -5.703223710859558343e-02
2.828600000000000136e+01 -2.991999999999999993e+00 1.060500000000000043e+01 -4.222445000000000226e-01 -4.896519113439420229e-02
2.828999999999999915e+01 -4.582300000000000040e+00 3.920000000000000284e+01 -3.719886999999999944e+00 6.577577612437807142e-02
2.829100000000000037e+01 5.504999999999999893e+00 1.678500000000000014e+01 1.854492999999999947e+00 -5.211278152197755531e-02
2.829400000000000048e+01 -6.174299999999999677e+00 3.414399999999999835e+01 -2.758280000000000065e+00 6.011929614477715816e-02
2.829400000000000048e+01 -6.174299999999999677e+00 3.500900000000000034e+01 -2.887837000000000209e+00 6.098720555360188922e-02
2.829799999999999827e+01 6.345699999999999674e-01 1.213599999999999923e+01 -3.160410999999999859e+00 -5.017727054270778447e-02
2.830399999999999849e+01 -7.852999999999999758e+00 4.543900000000000006e+01 2.776427999999999940e+01 -1.969804843375903142e-02
2.830699999999999861e+01 1.195199999999999996e+01 2.757600000000000051e+01 -7.412588000000000399e+00 -5.812950220228901843e-02
2.831099999999999994e+01 -7.090600000000000236e+00 6.597400000000000375e+01 1.502809999999999979e+00 1.611857050524717269e-02
2.831400000000000006e+01 8.339100000000000179e+00 3.128000000000000114e+01 -2.056594000000000122e+01 -5.005950401374892333e-02
2.831400000000000006e+01 9.529999999999999361e+00 3.061599999999999966e+01 -2.321797000000000111e+01 -5.296674022607328336e-02
2.832100000000000151e+01 -1.787800000000000011e+01 5.453999999999999915e+01 -5.663366999999999707e-02 1.928813344803996244e-01
2.832100000000000151e+01 1.004400000000000048e+01 2.602899999999999991e+01 1.452242000000000033e+01 -5.522111109070897139e-02
2.832100000000000151e+01 -8.566000000000000725e+00 3.354200000000000159e+01 -4.440603999999999729e+01 5.868926058509478516e-02
2.832700000000000173e+01 -8.448399999999999466e+00 3.100499999999999901e+01 5.004700999999999844e+00 5.672917112967063025e-02
2.832900000000000063e+01 3.326000000000000068e+00 6.178000000000000114e+01 -1.061918000000000006e+01 4.898215641884258453e-02
2.832999999999999829e+01 -3.111700000000000088e+01 5.906499999999999773e+01 -4.622863999999999862e-01 3.120443672241961577e-02
2.832999999999999829e+01 -1.616700000000000026e+00 1.152599999999999980e+01 -5.530179999999999652e+00 -4.931792734932304717e-02
2.833200000000000074e+01 -3.156099999999999994e+01 5.842099999999999937e+01 -1.742072000000000065e-01 3.136091719196262839e-02
2.833299999999999841e+01 -1.128400000000000070e+01 3.178500000000000014e+01 -1.977799000000000085e+00 5.654341185394319569e-02
2.833399999999999963e+01 3.431099999999999817e+00 5.921500000000000341e+01 2.526137999999999906e+01 4.555842596614127771e-02
2.833699999999999974e+01 8.342700000000000671e+00 4.973100000000000165e+01 -8.277623000000000175e+00 9.302998130978659685e-02
2.833699999999999974e+01 8.342700000000000671e+00 5.059599999999999653e+01 1.971277999999999864e+01 7.463862845677646241e-02
2.833699999999999974e+01 -6.657000000000000028e+00 2.078300000000000125e+01 -9.730098999999999165e+00 -4.405580002846269660e-02
2.833800000000000097e+01 -3.067399999999999949e+01 5.663199999999999790e+01 -1.312459000000000042e+00 3.132720657478645782e-02
2.833899999999999864e+01 -2.666900000000000048e+01 6.040200000000000102e+01 8.457774999999999599e-01 2.983034337171254144e-02
2.833899999999999864e+01 -1.560500000000000043e+01 6.798900000000000432e+01 4.222641999999999740e+01 2.368876769437257973e-02
2.833999999999999986e+01 -2.804299999999999926e+01 6.825700000000000500e+01 -2.536289000000000016e+00 3.041575278082547795e-02
2.834199999999999875e+01 -9.912100000000000577e+00 6.579200000000000159e+01 8.781781999999999755e+00 1.763159534098068457e-02
2.834499999999999886e+01 9.568099999999999383e+00 3.733100000000000307e+01 8.411119999999999708e-01 -4.457124759743991832e-02
2.834600000000000009e+01 -4.350999999999999979e+00 2.235999999999999943e+01 -4.138555000000000206e+00 -4.413118299690080293e-02
2.834799999999999898e+01 -4.278900000000000148e+00 3.850000000000000000e+01 -6.007817000000000185e+00 6.616065340069224310e-02
2.835300000000000153e+01 -2.122899999999999920e+01 6.887300000000000466e+01 3.198238999999999876e+01 2.774416461941500017e-02
2.835600000000000165e+01 -3.849500000000000144e-01 6.271600000000000108e+01 -2.145827000000000151e+00 -1.038954768968690934e-01
2.835600000000000165e+01 8.903900000000000148e+00 5.365500000000000114e+01 6.144904999999999617e+00 2.367170485591553464e-01
2.835699999999999932e+01 -2.366199999999999903e+01 6.943000000000000682e+01 -5.589140999999999693e+00 2.901495977059927525e-02
2.836599999999999966e+01 -4.840499999999999803e-01 1.228400000000000070e+01 -3.316018000000000132e+00 -4.964978364728998839e-02
2.837000000000000099e+01 -9.628099999999999881e+00 2.357799999999999940e+01 -4.915379000000000276e-01 -1.347597409021284165e-01
2.837099999999999866e+01 -2.466700000000000159e+01 5.610499999999999687e+01 5.853445999999999927e+00 1.935170239775355350e-01
2.837399999999999878e+01 -6.225999999999999979e+00 2.000300000000000011e+01 -7.065059999999999896e+00 -4.459698762195877381e-02
2.837500000000000000e+01 -3.213200000000000056e+00 1.953900000000000148e+01 -1.831611000000000100e+00 -4.608028611736520591e-02
2.837500000000000000e+01 -2.460600000000000165e+01 6.922899999999999920e+01 5.670494999999999841e+00 2.936530384543462047e-02
2.837999999999999901e+01 -4.754299999999999748e+00 3.774799999999999756e+01 -1.880911000000000044e+01 6.484657339942220822e-02
2.838200000000000145e+01 -2.709900000000000020e+01 6.560999999999999943e+01 -2.274691999999999936e+00 2.986539257439275660e-02
2.838200000000000145e+01 -7.870099999999999874e+00 2.870599999999999952e+01 1.679431999999999869e-01 5.510628173948799169e-02
2.838200000000000145e+01 -7.660999999999999588e+00 2.944200000000000017e+01 6.490319000000000393e+00 5.567201114571083964e-02
2.838299999999999912e+01 -1.706099999999999994e+01 5.446200000000000330e+01 5.972888000000000197e+00 1.928412461669622435e-01
2.838500000000000156e+01 -1.699200000000000088e+01 6.923900000000000432e+01 -4.206311999999999784e+01 2.535981713097994888e-02
2.838599999999999923e+01 9.666800000000000281e+00 4.335499999999999687e+01 -5.395976000000000106e+00 -1.384328796601176290e-02
2.838599999999999923e+01 9.771300000000000097e+00 4.255400000000000205e+01 -5.563127999999999851e+00 -2.103969001918735635e-02
2.838700000000000045e+01 -1.087800000000000011e+01 2.052499999999999858e+01 -4.346607999999999805e+00 -1.357430813406886039e-01
2.838700000000000045e+01 -1.087800000000000011e+01 2.146499999999999986e+01 -6.647282999999999831e+00 -1.353640296237536844e-01
2.838800000000000168e+01 8.507099999999999440e+00 5.109300000000000352e+01 9.577448000000000405e+00 6.316934017412952074e-02
2.839399999999999835e+01 2.440700000000000092e+00 1.224200000000000088e+01 -1.766872999999999916e+00 -5.103833347444567542e-02
2.840200000000000102e+01 -7.318299999999999805e+00 4.873100000000000165e+01 9.949239999999999640e+00 -2.727878709550472444e-02
2.841100000000000136e+01 -4.345799999999999663e+00 1.878099999999999881e+01 1.284777000000000058e+00 -4.590503771412345752e-02
2.841100000000000136e+01 8.816000000000000725e+00 3.324199999999999733e+01 -3.330156999999999812e+00 -4.926440352857482108e-02
2.841499999999999915e+01 -2.704500000000000171e+01 6.837300000000000466e+01 -2.309791999999999845e+00 3.013627211095409181e-02
2.841499999999999915e+01 -2.613899999999999935e+01 6.837300000000000466e+01 6.452543999999999613e+00 2.981661291410276499e-02
2.842099999999999937e+01 1.128299999999999947e+01 2.692500000000000071e+01 -1.348701999999999956e-01 -5.707635701959838659e-02
2.842399999999999949e+01 -1.822200000000000131e+01 7.006199999999999761e+01 -3.288398000000000110e+01 2.658449361043185161e-02
2.842599999999999838e+01 -9.647999999999999687e+00 1.970200000000000173e+01 -5.231694000000000067e+00 -4.366435736134031964e-02
2.843199999999999861e+01 -3.119099999999999984e+00 2.044099999999999895e+01 -2.944693000000000005e+00 -4.571883613350005704e-02
2.843299999999999983e+01 -2.659199999999999875e+01 5.557800000000000296e+01 2.045996999999999844e+00 1.935147667358417256e-01
2.843900000000000006e+01 2.432599999999999874e+00 1.290499999999999936e+01 -8.544881000000000171e+00 -5.093802960690455711e-02
2.844200000000000017e+01 -2.769800000000000040e+01 5.967099999999999937e+01 9.495964999999999989e+00 3.027110204635201016e-02
2.845700000000000074e+01 -7.783999999999999808e+00 3.035399999999999920e+01 1.681427000000000049e+01 5.633951389664434289e-02
2.845799999999999841e+01 6.003000000000000114e+00 2.055300000000000082e+01 5.200238000000000227e+01 -5.183974789186429621e-02
2.846199999999999974e+01 -8.515399999999999636e+00 1.894399999999999906e+01 -7.690114999999999590e+00 -4.432851249556939155e-02
2.846499999999999986e+01 1.021700000000000053e+00 1.139199999999999946e+01 -1.169610000000000039e+00 -5.050773056098654262e-02
2.846499999999999986e+01 2.072299999999999809e+00 1.139199999999999946e+01 5.389954999999999607e-01 -5.099527545482414326e-02
2.846799999999999997e+01 -5.657199999999999562e+00 3.741199999999999903e+01 -5.167985999999999969e+00 6.380741578333912201e-02
2.846799999999999997e+01 2.498800000000000132e+00 1.381199999999999939e+01 -1.288302999999999976e+01 -5.082447513560395258e-02
2.846799999999999997e+01 -1.951899999999999835e+01 6.933199999999999363e+01 -1.430272999999999906e+00 2.707779257149270369e-02
2.848100000000000165e+01 5.217699999999999783e+00 5.621500000000000341e+01 -4.843327000000000049e-01 2.569676266725057223e-01
2.848100000000000165e+01 6.268299999999999983e+00 5.621500000000000341e+01 9.242793999999999732e-01 2.553476855088789854e-01
2.848400000000000176e+01 1.019299999999999962e+01 4.161399999999999721e+01 -7.599874999999999936e+00 -3.014006260206084087e-02
2.848499999999999943e+01 3.083800000000000097e+00 5.650399999999999778e+01 1.714507000000000048e+01 -3.542613752629818202e-02
2.848999999999999844e+01 -1.630799999999999983e+01 5.529599999999999937e+01 1.537838999999999956e+01 1.930467955867001539e-01
2.850799999999999912e+01 -1.485299999999999976e+01 6.760999999999999943e+01 4.414954999999999785e+01 2.323206068649176503e-02
2.851300000000000168e+01 2.920300000000000118e+00 6.221300000000000097e+01 5.280588999999999977e+00 -6.385088688106063670e-02
2.851500000000000057e+01 8.732400000000000162e+00 4.789399999999999835e+01 1.030906000000000056e+01 1.224438077678505071e-01
2.851899999999999835e+01 -8.389699999999999491e+00 6.541200000000000614e+01 2.979868000000000094e+01 1.786518355439564720e-02
2.852199999999999847e+01 5.130499999999999616e+00 1.592099999999999937e+01 2.955897999999999914e+00 -5.203685149949440619e-02
2.852299999999999969e+01 -3.027400000000000091e+01 5.585999999999999943e+01 -3.012909000000000059e+00 3.139137423731913623e-02
2.853099999999999881e+01 6.554400000000000226e+00 2.142500000000000071e+01 4.390151999999999610e+00 -5.215254375687487787e-02
2.853200000000000003e+01 9.157500000000000639e+00 2.411199999999999832e+01 9.038890999999999565e+00 -5.439772844844618233e-02
2.853699999999999903e+01 -1.906299999999999883e+01 5.524199999999999733e+01 -3.184825000000000017e+00 1.932513837669519730e-01
2.853699999999999903e+01 8.569999999999999840e-01 6.318999999999999773e+01 -1.069351999999999947e+01 -1.053807977416891528e-01
2.853800000000000026e+01 -4.570400000000000240e+00 1.116999999999999993e+01 -1.381987000000000076e+00 -4.828746044272451410e-02
2.853800000000000026e+01 -2.862099999999999866e+01 5.466599999999999682e+01 -5.011434999999999640e-01 1.934857952137246095e-01
2.853999999999999915e+01 1.089400000000000013e+01 3.008500000000000085e+01 -1.461866000000000021e+01 -5.617748116646407303e-02
2.854299999999999926e+01 -1.375399999999999956e+01 5.135900000000000176e+01 -1.255030000000000001e+01 1.920128740183661697e-01
2.854299999999999926e+01 -1.011400000000000077e+01 4.232900000000000063e+01 2.233575000000000088e+00 -1.727354407199326730e-02
2.854799999999999827e+01 -6.064300000000000246e+00 4.009899999999999665e+01 8.194679999999999742e-01 6.290934395744493535e-02
2.855600000000000094e+01 -4.088000000000000078e+00 6.441100000000000136e+01 5.859866000000000241e+00 2.110030474115134891e-01
2.855699999999999861e+01 -3.977300000000000058e+00 6.520799999999999841e+01 2.151381999999999906e+01 2.167004141839969922e-01
2.855699999999999861e+01 -3.977300000000000058e+00 6.614799999999999613e+01 6.492652999999999963e+01 2.232244171237563746e-01
2.856099999999999994e+01 -2.264999999999999858e+01 5.761699999999999733e+01 -5.051116999999999635e+00 1.938341331425683378e-01
2.856700000000000017e+01 7.687000000000000277e+00 2.218299999999999983e+01 -4.632551999999999559e+00 -5.309944438835787622e-02
2.857600000000000051e+01 -1.778900000000000148e+01 5.050800000000000267e+01 -8.716475000000000861e+00 1.923881196355833045e-01
2.857600000000000051e+01 -1.532900000000000063e+01 5.050800000000000267e+01 -2.256925999999999988e+01 1.921183813847012201e-01
2.857900000000000063e+01 -1.262100000000000044e+01 5.060000000000000142e+01 1.602778000000000036e+00 1.917642725600408882e-01
2.857900000000000063e+01 -8.737000000000000099e+00 4.057699999999999818e+01 1.433376999999999946e+01 -1.307701544037383548e-02
2.858299999999999841e+01 7.545700000000000074e+00 5.543900000000000006e+01 -4.664994000000000085e+00 2.464477887254180322e-01
2.858399999999999963e+01 -2.587600000000000122e+01 6.266899999999999693e+01 4.425447000000000131e+00 2.951272383425063844e-02
2.858399999999999963e+01 -7.197000000000000064e+00 4.085699999999999932e+01 3.311237000000000208e+00 6.060999163366013326e-02
2.858599999999999852e+01 -8.298999999999999488e+00 1.802899999999999991e+01 -3.183006999999999920e+00 -4.479911602045095337e-02
2.858599999999999852e+01 -8.045099999999999696e+00 1.713500000000000156e+01 -1.803033000000000108e+00 -4.523779214901785251e-02
2.858699999999999974e+01 2.193799999999999972e+00 5.728799999999999670e+01 6.926219999999999821e+00 4.233497809367658959e-02
2.858699999999999974e+01 2.193799999999999972e+00 5.815299999999999869e+01 -4.459467000000000070e+00 4.400007782016123609e-02
2.859600000000000009e+01 -5.206999999999999851e+00 6.697100000000000364e+01 -6.864292000000000371e+01 2.389353291170814159e-02
2.860000000000000142e+01 -1.626900000000000013e+00 6.224099999999999966e+01 1.845750999999999920e+01 -9.011270958814093790e-02
2.860000000000000142e+01 -2.545400000000000063e+01 6.821500000000000341e+01 2.090689000000000064e+01 2.964656868189126729e-02
2.861100000000000065e+01 9.062300000000000466e+00 2.310399999999999920e+01 -1.427056000000000102e+00 -5.443779345428686328e-02
2.861499999999999844e+01 -1.655900000000000105e+01 4.968500000000000227e+01 -9.646253999999999662e-01 1.921799690825120033e-01
2.861599999999999966e+01 -7.331299999999999706e+00 4.628699999999999903e+01 1.561227000000000054e+01 -2.102719242226652047e-02
2.861899999999999977e+01 -9.990999999999999659e+00 4.141700000000000159e+01 1.826921000000000017e+00 -1.589375590355823070e-02
2.862000000000000099e+01 -2.582999999999999829e+01 6.365200000000000102e+01 5.916995000000000005e+00 2.948661133046987654e-02
2.863299999999999912e+01 -1.004599999999999937e+01 4.424799999999999756e+01 3.294097999999999971e+00 -2.021518412074726698e-02
2.863800000000000168e+01 -2.423400000000000176e+01 5.680499999999999972e+01 -3.173314999999999886e-01 1.937467898642007413e-01
2.864000000000000057e+01 -6.503599999999999604e+00 6.624099999999999966e+01 -9.074654000000000664e+00 1.955592004050982213e-02
2.864199999999999946e+01 -2.933099999999999952e+01 5.942699999999999960e+01 1.100735000000000019e+00 3.083365910448473274e-02
2.864300000000000068e+01 -1.055199999999999960e+01 4.843800000000000239e+01 3.884373000000000076e+00 2.795771060211657000e-01
2.864300000000000068e+01 -2.099299999999999855e+01 5.764600000000000080e+01 -5.679026000000000352e+00 1.938799837419114269e-01
2.864300000000000068e+01 -2.985099999999999909e+01 5.513600000000000279e+01 -1.026694999999999913e+00 3.143634042086500963e-02
2.864699999999999847e+01 -9.023999999999999133e+00 4.858500000000000085e+01 7.401279999999999859e+00 2.499434512878796200e-01
2.865099999999999980e+01 -1.749399999999999977e+01 5.516199999999999903e+01 -3.521198000000000050e+00 1.932261039397916158e-01
2.865099999999999980e+01 -1.662800000000000011e+01 5.376200000000000045e+01 1.345234999999999914e+01 1.928612412622463246e-01
2.865399999999999991e+01 9.876400000000000290e+00 4.023799999999999955e+01 -1.390338999999999992e+01 -3.615895891780002841e-02
2.865399999999999991e+01 1.587900000000000089e+00 6.306900000000000261e+01 -4.614790999999999754e-01 -9.168604925114284820e-02
2.865500000000000114e+01 -3.842000000000000082e+00 1.067600000000000016e+01 -1.348514999999999908e+00 -4.867657173501079015e-02
2.865500000000000114e+01 -2.141999999999999904e+00 1.067600000000000016e+01 -1.021840999999999999e+00 -4.932074329839493398e-02
2.865599999999999881e+01 -2.192899999999999849e+01 6.893099999999999739e+01 4.928739000000000203e+01 2.836117360951379007e-02
2.866000000000000014e+01 -2.573999999999999844e+01 6.483899999999999864e+01 -5.989955000000000140e+00 2.948393853371097939e-02
2.866600000000000037e+01 -1.160100000000000087e+01 4.877600000000000335e+01 3.937448999999999977e+00 1.914625942109084711e-01
2.866900000000000048e+01 -6.885699999999999932e+00 4.716599999999999682e+01 2.481886000000000081e+01 -2.268346924865944497e-02
2.866900000000000048e+01 -6.885699999999999932e+00 4.803099999999999881e+01 2.287370999999999910e+01 -2.504699045904172985e-02
2.867500000000000071e+01 -1.610000000000000142e+01 5.452900000000000347e+01 8.822060999999999709e+00 1.930020966616457501e-01
2.868400000000000105e+01 -8.561700000000000088e+00 2.679899999999999949e+01 -5.720269999999999522e-01 5.371606025375542937e-02
2.868400000000000105e+01 -8.561700000000000088e+00 2.773900000000000077e+01 -3.429074999999999762e-01 5.432876754517239337e-02
2.868499999999999872e+01 -8.660099999999999909e+00 2.526599999999999824e+01 6.328416000000000041e-01 -1.344510299575223111e-01
2.868499999999999872e+01 -8.451000000000000512e+00 2.600199999999999889e+01 -2.353340999999999905e+00 5.321928633564189381e-02
2.868599999999999994e+01 -6.096700000000000230e+00 1.427599999999999980e+01 -2.407960000000000100e+00 -4.690832988710654655e-02
2.868799999999999883e+01 -2.622200000000000131e+01 6.115599999999999881e+01 -8.431402999999999814e-02 2.978693455646144739e-02
2.868799999999999883e+01 -2.601300000000000168e+01 6.189200000000000301e+01 2.713834999999999997e-01 2.966072856548988487e-02
2.869099999999999895e+01 -3.914400000000000102e+00 6.363300000000000267e+01 9.175404000000000337e+00 2.079258449452740243e-01
2.869399999999999906e+01 1.018599999999999994e+01 4.101100000000000279e+01 -1.220781999999999989e+01 -3.392208290855363434e-02
2.869900000000000162e+01 -1.557199999999999918e+01 5.529599999999999937e+01 1.292991999999999919e+01 1.931700936767401788e-01
2.869999999999999929e+01 -1.002299999999999969e+01 2.289900000000000091e+01 -1.948612000000000011e+00 -1.352026749978731124e-01
2.870100000000000051e+01 -1.367900000000000027e+01 6.711299999999999955e+01 1.578565000000000111e+02 2.248652731702555085e-02
2.870499999999999829e+01 -1.046100000000000030e+01 6.667199999999999704e+01 -1.134120000000000061e+01 1.954966873764420882e-02
2.870700000000000074e+01 -2.773000000000000131e+00 6.272500000000000142e+01 2.866740000000000066e+01 2.040703571564205510e-01
2.870799999999999841e+01 5.911599999999999966e+00 1.904700000000000060e+01 6.198951000000000100e+00 -5.213130495979647477e-02
2.870799999999999841e+01 5.911599999999999966e+00 1.991300000000000026e+01 3.423786000000000218e+00 -5.196432469092382433e-02
2.871799999999999997e+01 -2.604299999999999926e+01 6.553900000000000148e+01 -1.896722000000000019e+00 2.965850971920326942e-02
2.872400000000000020e+01 -1.769399999999999906e+01 5.152900000000000347e+01 -1.383839000000000041e+01 1.926102906056390007e-01
2.873300000000000054e+01 -1.496599999999999930e+01 5.120900000000000318e+01 -1.745775000000000077e+01 1.922847277673414013e-01
2.873699999999999832e+01 -2.729200000000000159e+01 5.552000000000000313e+01 -1.621574000000000071e+00 1.936401883257161394e-01
2.874200000000000088e+01 -1.692699999999999960e+01 5.315999999999999659e+01 4.067248000000000197e+00 1.928336336905871196e-01
2.874200000000000088e+01 -4.783599999999999852e+00 2.186899999999999977e+01 -2.826386999999999983e+00 -4.427576688852374875e-02
2.874200000000000088e+01 -3.918400000000000105e+00 2.186899999999999977e+01 -4.877016000000000240e+00 -4.466122772212370584e-02
2.874699999999999989e+01 8.830000000000000071e+00 3.088299999999999912e+01 -2.048965000000000103e+01 -5.163448203526618124e-02
2.874800000000000111e+01 -7.366299999999999848e+00 1.529299999999999926e+01 6.305220999999999743e-02 -4.614998290738678288e-02
2.875400000000000134e+01 9.343999999999999417e+00 2.489600000000000080e+01 6.022471999999999603e+00 -5.461181327042262390e-02
2.875499999999999901e+01 -1.067600000000000016e+01 3.141900000000000048e+01 -7.954723000000000432e+00 5.641718682061037937e-02
2.875499999999999901e+01 -1.067600000000000016e+01 3.387899999999999778e+01 -3.641029000000000337e+01 5.807790497876809399e-02
2.875499999999999901e+01 -9.156000000000000583e+00 3.387899999999999778e+01 -7.795412000000000319e+01 5.867120285158533566e-02
2.875499999999999901e+01 -2.752400000000000091e+01 6.622700000000000387e+01 1.879327000000000081e-01 3.024010795581795821e-02
2.875499999999999901e+01 -2.752400000000000091e+01 6.777700000000000102e+01 4.051997000000000071e+00 3.039104237182986903e-02
2.875499999999999901e+01 -2.656599999999999895e+01 6.777700000000000102e+01 2.794979000000000013e+01 3.007180485270586484e-02
2.875499999999999901e+01 -2.570100000000000051e+01 6.777700000000000102e+01 1.790454000000000079e+01 2.976580019201801458e-02
2.875600000000000023e+01 -8.882400000000000517e+00 2.457000000000000028e+01 3.092274000000000189e+00 -1.347998408021092998e-01
2.875600000000000023e+01 1.121700000000000053e+01 3.427799999999999869e+01 -9.530668999999999613e+00 -5.562920660132680828e-02
2.875600000000000023e+01 1.121700000000000053e+01 3.673799999999999955e+01 -4.457455000000000167e-01 -5.324033441039320580e-02
2.875799999999999912e+01 -1.673999999999999844e+01 5.599600000000000222e+01 5.553799999999999670e+01 1.934735549356565165e-01
2.875799999999999912e+01 -1.587500000000000000e+01 5.599600000000000222e+01 2.738115000000000165e+01 1.934311436771871118e-01
2.876099999999999923e+01 -5.481600000000000250e+00 1.983699999999999974e+01 -7.515818999999999583e+00 -4.501323314636219292e-02
2.876099999999999923e+01 -5.481600000000000250e+00 2.123699999999999832e+01 -2.272021000000000068e+00 -4.432516156224207415e-02
2.876099999999999923e+01 4.118800000000000239e+00 1.514100000000000001e+01 2.259507000000000154e+00 -5.156901588073806858e-02
2.876300000000000168e+01 -9.166699999999999848e-01 1.179299999999999926e+01 -4.414114999999999789e+00 -4.961297554397883086e-02
2.876699999999999946e+01 -1.458600000000000030e+01 6.708400000000000318e+01 2.714981999999999829e+01 2.339908069265950880e-02
2.876800000000000068e+01 5.073100000000000165e+00 5.544500000000000028e+01 -1.017624999999999957e+01 2.547565182128249672e-01
2.876800000000000068e+01 -2.034600000000000009e+01 6.874099999999999966e+01 5.460180000000000256e+00 2.764586411153953024e-02
2.877700000000000102e+01 8.868100000000000094e+00 3.846399999999999864e+01 -2.000544999999999973e+01 -3.893782605943024028e-02
2.877700000000000102e+01 9.077199999999999491e+00 3.772800000000000153e+01 8.534125000000000183e-01 -4.205023262268767908e-02
2.877700000000000102e+01 9.077199999999999491e+00 3.920000000000000284e+01 -1.366028000000000020e+01 -3.705779379992520106e-02
2.877899999999999991e+01 -1.637000000000000099e+01 6.812300000000000466e+01 1.165752999999999950e+01 2.508193840198690711e-02
2.878200000000000003e+01 9.164999999999999147e+00 4.719400000000000261e+01 2.711814000000000036e+01 1.338955206282085586e-01
2.878300000000000125e+01 -2.348900000000000077e+01 5.752900000000000347e+01 -3.497036000000000033e+00 1.939414023940515819e-01
2.878800000000000026e+01 -7.642699999999999605e+00 1.631099999999999994e+01 -1.631801000000000057e+00 -4.570243447035667733e-02
2.878900000000000148e+01 1.236299999999999955e+01 2.808599999999999852e+01 -1.457020999999999944e+01 -5.920893151617060562e-02
2.878900000000000148e+01 1.236299999999999955e+01 2.902599999999999980e+01 -2.073463999999999885e+01 -5.936564746707245765e-02
2.878999999999999915e+01 -7.623000000000000220e+00 6.537699999999999534e+01 8.772507000000000232e+01 1.979339738460809267e-02
2.880000000000000071e+01 -1.187100000000000044e+01 6.757399999999999807e+01 -3.926758999999999844e+01 2.133693002875158840e-02
2.880699999999999861e+01 -9.404700000000000060e+00 4.496999999999999886e+01 1.353392999999999979e+01 -2.084559325886555653e-02
2.880799999999999983e+01 -4.778500000000000192e+00 1.927199999999999847e+01 -3.935156000000000098e+00 -4.556442877286615012e-02
2.880799999999999983e+01 -3.913199999999999790e+00 1.927199999999999847e+01 9.006313999999999709e-01 -4.594047219523682279e-02
2.880799999999999983e+01 3.869499999999999940e+00 5.971099999999999852e+01 8.267113999999999407e+00 5.770279912048738996e-02
2.880799999999999983e+01 3.869499999999999940e+00 6.134100000000000108e+01 -3.434926999999999708e+01 6.670315358554919360e-02
2.880799999999999983e+01 4.100999999999999979e+00 6.052600000000000335e+01 6.068660000000000165e-01 6.331150613229390156e-02
2.881299999999999883e+01 -1.729599999999999937e+01 5.231000000000000227e+01 -2.662737000000000021e-01 1.927584044967093901e-01
2.881400000000000006e+01 6.070000000000000284e+00 1.813500000000000156e+01 1.034192999999999962e+01 -5.242749769281072197e-02
2.881400000000000006e+01 5.930200000000000138e+00 1.724299999999999855e+01 2.485151000000000110e+00 -5.245279212795682378e-02
2.881500000000000128e+01 -1.506499999999999950e+01 6.723300000000000409e+01 2.714981999999999829e+01 2.391356137980813618e-02
2.881599999999999895e+01 -9.157099999999999795e+00 3.132100000000000151e+01 -2.153075000000000117e+01 5.672841601686409024e-02
2.881899999999999906e+01 -5.785000000000000142e+00 2.053699999999999903e+01 -1.912922000000000011e+00 -4.456707699241015119e-02
2.882000000000000028e+01 -2.785999999999999943e+01 6.700199999999999534e+01 -1.268014000000000085e-01 3.044761192882255996e-02
2.882199999999999918e+01 -5.653400000000000425e+00 3.921099999999999852e+01 -6.644611999999999741e-01 6.427538849708183677e-02
2.882700000000000173e+01 -1.953300000000000125e+01 5.600200000000000244e+01 -1.118408000000000069e+00 1.936249155513333764e-01
2.882799999999999940e+01 -8.171200000000000685e+00 4.871600000000000108e+01 1.025775999999999932e+01 -2.812599323254193553e-02
2.883099999999999952e+01 -2.718199999999999861e+01 6.000000000000000000e+01 1.215605000000000047e+01 3.026253064916372554e-02
2.883299999999999841e+01 -5.368400000000000283e+00 3.848199999999999932e+01 -1.435853000000000046e+00 6.507920715664948508e-02
2.883899999999999864e+01 -8.186899999999999622e+00 3.128500000000000014e+01 3.114419999999999966e+00 5.692499088093064957e-02
2.883899999999999864e+01 1.574899999999999911e-01 1.162299999999999933e+01 -2.424322999999999784e+00 -5.012768006941353827e-02
2.884199999999999875e+01 8.755900000000000460e+00 5.240699999999999648e+01 9.384724000000000288e+00 2.551322760209219151e-02
2.884400000000000119e+01 9.306900000000000617e+00 3.363799999999999812e+01 9.135132999999999726e-01 -5.044173282321869761e-02
2.884600000000000009e+01 -1.305400000000000027e+01 5.129999999999999716e+01 -2.497250000000000192e+00 1.921442315501284137e-01
2.884900000000000020e+01 -8.897600000000000620e+00 1.965399999999999991e+01 -7.049824000000000090e+00 -4.394339506193505052e-02
2.885000000000000142e+01 -7.970299999999999940e+00 4.054200000000000159e+01 2.147810000000000130e+01 -1.188456525922692089e-02
2.885500000000000043e+01 2.626500000000000057e+00 5.658800000000000097e+01 -3.229784999999999684e+01 4.411944463407153905e-02
2.885500000000000043e+01 2.626500000000000057e+00 5.885300000000000153e+01 -4.572170999999999985e+00 5.088553353337636059e-02
2.885500000000000043e+01 -1.869200000000000017e+01 6.952899999999999636e+01 -1.578640000000000043e+01 2.714129943195026790e-02
2.885500000000000043e+01 -1.775199999999999889e+01 6.952899999999999636e+01 -2.288882999999999868e+01 2.662955041148386617e-02
2.885699999999999932e+01 -1.011800000000000033e+01 2.023499999999999943e+01 -9.577571000000000723e+00 -4.334565902827944989e-02
2.886599999999999966e+01 -3.609799999999999898e+00 1.997200000000000131e+01 -6.906226000000000198e+00 -4.577353937962367475e-02
2.886599999999999966e+01 -3.609799999999999898e+00 2.091000000000000014e+01 -9.057207999999999259e+00 -4.532381574783984901e-02
2.886599999999999966e+01 -1.830300000000000082e+01 5.517900000000000205e+01 -6.122424999999999784e+00 1.934289074800793207e-01
2.886599999999999966e+01 9.700000000000000289e-02 6.312700000000000244e+01 -9.767310999999999410e+00 -9.502196167663873316e-02
2.888800000000000168e+01 -6.053300000000000125e+00 3.372800000000000153e+01 -5.525508000000000308e+00 5.965617632930427655e-02
2.888899999999999935e+01 -6.716499999999999915e+00 6.542900000000000205e+01 1.892426999999999992e+01 2.165078744848612097e-02
2.889000000000000057e+01 -4.960300000000000153e+00 1.206000000000000050e+01 -2.995629999999999793e+00 -4.796724741079910759e-02
2.889000000000000057e+01 6.703000000000000291e+00 2.082100000000000151e+01 -2.156859999999999999e+00 -5.251195302819442606e-02
2.889199999999999946e+01 -2.658899999999999864e+01 6.618899999999999295e+01 3.647715999999999958e+00 2.999226011753263615e-02
2.889900000000000091e+01 1.052999999999999936e+01 2.674200000000000088e+01 1.001914999999999978e+01 -5.615820048632043371e-02
2.890200000000000102e+01 -1.965399999999999991e+01 5.690500000000000114e+01 -4.281648999999999816e+00 1.938806457233971936e-01
2.890299999999999869e+01 -9.268999999999999462e-01 6.229999999999999716e+01 5.174432999999999616e+00 -8.386197479747578565e-02
2.891100000000000136e+01 -2.175199999999999889e+01 5.768099999999999739e+01 -3.937955000000000094e+00 1.940530926235224662e-01
2.891499999999999915e+01 -9.512000000000000455e+00 4.064200000000000301e+01 5.406208999999999598e+00 -1.434002366846957519e-02
2.891799999999999926e+01 -1.742299999999999827e+01 6.876900000000000546e+01 -3.568095999999999890e+01 2.621201685693367450e-02
2.891799999999999926e+01 9.379899999999999238e+00 2.570299999999999940e+01 3.686526000000000192e+00 -5.460856472640816112e-02
2.892000000000000171e+01 -1.044699999999999918e+01 2.099500000000000099e+01 -8.642260000000000275e+00 -4.291084488944320319e-02
2.892200000000000060e+01 5.814000000000000057e+00 5.547999999999999687e+01 2.454184999999999839e+00 2.537594411915026771e-01
2.892800000000000082e+01 1.007199999999999918e+01 3.040899999999999892e+01 -5.198170000000000179e+00 -5.461216344165421843e-02
2.892800000000000082e+01 -9.175100000000000477e+00 2.408599999999999852e+01 2.870565999999999951e-01 -1.350818674582639212e-01
2.893299999999999983e+01 8.441000000000000725e+00 4.874199999999999733e+01 -1.915375999999999834e+01 1.186449156773325270e-01
2.893400000000000105e+01 -3.025499999999999901e+01 5.916199999999999903e+01 1.593480999999999925e+00 3.120102499700364712e-02
2.893499999999999872e+01 -2.476300000000000168e+01 5.640999999999999659e+01 -4.597631999999999941e+00 1.938299802022996621e-01
2.893599999999999994e+01 8.537000000000000810e+00 2.225400000000000134e+01 -3.098155999999999910e+00 -5.407708283389232179e-02
2.893900000000000006e+01 -2.623900000000000077e+01 6.700199999999999534e+01 3.887801999999999936e+01 2.997025267153993755e-02
2.894399999999999906e+01 6.752799999999999692e+00 5.546200000000000330e+01 1.464960999999999958e+00 2.505709258914636806e-01
2.894600000000000151e+01 1.546999999999999931e+00 1.079599999999999937e+01 1.001664000000000065e+01 -5.090346450481587903e-02
2.894999999999999929e+01 -2.535999999999999943e+01 5.599000000000000199e+01 -3.435248000000000079e+00 1.937752764949041695e-01
2.896199999999999974e+01 -9.115399999999999281e+00 6.543999999999999773e+01 6.072138000000000346e+01 2.034293696292137008e-02
2.896699999999999875e+01 -2.854200000000000159e+01 5.932500000000000284e+01 4.054675999999999902e+01 3.076575017864492320e-02
2.896699999999999875e+01 3.131099999999999994e+00 5.632200000000000273e+01 -1.456836999999999982e+01 -3.607149516685508039e-02
2.896999999999999886e+01 -5.089400000000000368e+00 1.301800000000000068e+01 -7.239576999999999707e+00 -4.767398225798980677e-02
2.897100000000000009e+01 -2.803099999999999881e+01 5.500300000000000011e+01 -2.517209999999999948e+00 1.936720562606481788e-01
2.897599999999999909e+01 -1.711899999999999977e+01 6.806900000000000261e+01 -1.222237000000000018e+00 2.586688772575098175e-02
2.897700000000000031e+01 4.337100000000000399e+00 5.544500000000000028e+01 -1.962878999999999863e+01 2.566447288511031211e-01
2.897800000000000153e+01 -9.215400000000000702e+00 2.016000000000000014e+01 -1.742165999999999926e+01 -4.363422200609463203e-02
2.898000000000000043e+01 -7.063299999999999912e+00 3.255799999999999983e+01 1.663883999999999830e+01 5.823767876197259025e-02
2.898400000000000176e+01 3.173799999999999955e+00 1.411500000000000021e+01 -7.918696999999999875e+00 -5.122423419851619697e-02
2.898999999999999844e+01 -8.150000000000000355e+00 4.544899999999999807e+01 2.925383000000000067e+01 -2.035716411496615169e-02
2.898999999999999844e+01 2.922299999999999898e+00 1.171700000000000053e+01 3.653988000000000014e+00 -5.143707712331526544e-02
2.898999999999999844e+01 2.922299999999999898e+00 1.276699999999999946e+01 -8.929722999999999189e+00 -5.129508701943493593e-02
2.898999999999999844e+01 2.922299999999999898e+00 1.363299999999999912e+01 -3.233561000000000263e+01 -5.116452190600573324e-02
2.899099999999999966e+01 -1.212599999999999945e+01 4.962599999999999767e+01 2.592349000000000014e+00 1.918717764955335248e-01
2.899099999999999966e+01 5.563299999999999912e+00 1.648199999999999932e+01 4.064087999999999923e+00 -5.233804978358089915e-02
2.899200000000000088e+01 6.378499999999999837e+00 2.024200000000000088e+01 -4.134388000000000396e+00 -5.236404006150450346e-02
2.899399999999999977e+01 -6.342999999999999972e+00 3.611200000000000188e+01 -1.168246000000000073e+01 6.192149400622790761e-02
2.899399999999999977e+01 -6.115999999999999659e+00 3.531300000000000239e+01 -5.842226000000000141e+00 6.121620742033805074e-02
2.899399999999999977e+01 -6.115999999999999659e+00 3.691100000000000136e+01 -6.350241999999999720e+00 6.288599016061144353e-02
2.899399999999999977e+01 -5.906900000000000261e+00 3.457699999999999818e+01 -3.059069000000000038e+00 6.054902371355831703e-02
2.899500000000000099e+01 8.101100000000000634e+00 5.508500000000000085e+01 -1.205419999999999964e-01 2.418382115741408711e-01
2.899599999999999866e+01 -1.729999999999999982e+00 5.359199999999999875e+01 2.920131000000000032e+00 3.793304772540122272e-02
2.900100000000000122e+01 9.110799999999999343e+00 5.418599999999999994e+01 -9.399891999999999692e-01 2.354225454234160075e-01
2.901099999999999923e+01 -2.272599999999999909e+01 6.911799999999999500e+01 3.821128999999999820e+01 2.903771788453531760e-02
2.901399999999999935e+01 8.397399999999999309e+00 3.158299999999999841e+01 -3.635318999999999789e+01 -5.035845195321633078e-02
2.901399999999999935e+01 8.397399999999999309e+00 3.244899999999999807e+01 -2.238973999999999975e+01 -4.954700114250469578e-02
2.902499999999999858e+01 -6.663299999999999557e+00 4.041199999999999903e+01 1.059841000000000033e+00 6.200908533514422338e-02
2.902700000000000102e+01 -5.676700000000000301e+00 6.643800000000000239e+01 -4.228667000000000087e+01 2.596515575428831601e-02
2.902700000000000102e+01 -4.737300000000000288e+00 6.643800000000000239e+01 -6.481681000000000381e+01 3.149503733238041836e-02
2.902799999999999869e+01 -5.049000000000000377e+00 2.053699999999999903e+01 -1.615132999999999930e+00 -4.489353705508523917e-02
2.902899999999999991e+01 -1.009200000000000053e+01 2.155999999999999872e+01 -4.579008000000000322e+01 -4.272976022453545131e-02
2.903200000000000003e+01 -3.129400000000000048e+01 5.792300000000000182e+01 1.153167999999999971e+00 3.157376337161061503e-02
2.903300000000000125e+01 -2.475400000000000134e+01 6.848199999999999932e+01 1.437368000000000023e+01 2.970162876913693545e-02
2.903300000000000125e+01 -3.849500000000000144e-01 5.602799999999999869e+01 -9.537789000000000073e+00 4.089608047582807965e-02
2.903500000000000014e+01 4.640500000000000291e+00 5.474499999999999744e+01 -1.557149000000000072e+01 2.550927339783615744e-01
2.903500000000000014e+01 5.505700000000000038e+00 5.474499999999999744e+01 -6.183405999999999736e+00 2.533295054306494709e-01
2.903699999999999903e+01 8.075300000000000367e+00 5.016400000000000148e+01 -4.334976000000000163e+00 9.159384306021346733e-02
2.903699999999999903e+01 8.284399999999999764e+00 4.942799999999999727e+01 -4.020190999999999804e+01 1.084927005599510830e-01
2.903699999999999903e+01 8.284399999999999764e+00 5.089999999999999858e+01 6.062600999999999907e+00 7.500562247003961236e-02
2.903800000000000026e+01 -3.125400000000000134e+01 5.731199999999999761e+01 -5.681517999999999846e-01 3.161982881582302979e-02
2.903800000000000026e+01 -3.073199999999999932e+01 5.632900000000000063e+01 -3.898827999999999960e+00 3.160745080800435314e-02
2.904299999999999926e+01 -2.280199999999999783e+00 6.213400000000000034e+01 4.484300999999999959e+01 -8.032139709685591489e-02
2.904500000000000171e+01 -1.114600000000000080e+01 3.217900000000000205e+01 -8.764001999999999626e+00 5.673670888662226547e-02
2.904500000000000171e+01 -1.114600000000000080e+01 3.311899999999999977e+01 -2.073731000000000080e+01 5.734992481745613407e-02
2.904599999999999937e+01 -1.702899999999999991e+01 5.021800000000000352e+01 -7.882190999999999503e-01 1.925494025783990315e-01
2.904599999999999937e+01 -1.608899999999999864e+01 5.021800000000000352e+01 1.365806999999999993e+00 1.924611784037726925e-01
2.904599999999999937e+01 1.168699999999999939e+01 3.503799999999999670e+01 -3.430051999999999879e+01 -5.721307559065541559e-02
2.904599999999999937e+01 1.168699999999999939e+01 3.597800000000000153e+01 -8.347105000000000530e+01 -5.657942307691936346e-02
2.904899999999999949e+01 -1.624800000000000111e+01 5.331199999999999761e+01 7.891441999999999624e+00 1.930317411317410969e-01
2.905099999999999838e+01 -2.704500000000000171e+01 6.700199999999999534e+01 2.754423999999999850e+01 3.030300323160611126e-02
2.905300000000000082e+01 -1.085699999999999932e+01 4.860900000000000176e+01 2.133728000000000069e+00 2.795454800917494542e-01
2.905600000000000094e+01 9.171300000000000452e+00 5.322200000000000131e+01 2.354084999999999983e+00 -6.660299582559679916e-03
2.906099999999999994e+01 7.278100000000000236e+00 2.155099999999999838e+01 -2.389130000000000198e+00 -5.295969109873768094e-02
2.906299999999999883e+01 9.798400000000000887e+00 4.373799999999999955e+01 -3.480363000000000095e+00 -1.019386579071262892e-02
2.907300000000000040e+01 -6.841000000000000192e+00 1.444299999999999962e+01 -2.309873000000000065e+00 -4.664379227280975732e-02
2.907400000000000162e+01 -2.938100000000000023e+01 5.460300000000000153e+01 -1.336511000000000005e+00 1.936730579941511599e-01
2.907499999999999929e+01 -4.345799999999999663e+00 1.997200000000000131e+01 -2.308904000000000067e+00 -4.547190722298176391e-02
2.907499999999999929e+01 -4.345799999999999663e+00 2.091000000000000014e+01 -2.606485000000000163e+00 -4.501898235679489824e-02
2.907900000000000063e+01 1.189300000000000068e+01 2.732600000000000051e+01 -3.748111999999999888e+00 -5.846287134869200541e-02
2.907900000000000063e+01 1.189300000000000068e+01 2.978600000000000136e+01 -1.407258000000000031e+01 -5.870397218625944546e-02
2.908399999999999963e+01 -9.916000000000000369e+00 3.135600000000000165e+01 -2.036610999999999905e+01 5.652142608592426731e-02
2.908399999999999963e+01 -9.916000000000000369e+00 3.394200000000000017e+01 -8.186910000000000309e+01 5.836902629077507509e-02
2.908800000000000097e+01 -7.147000000000000242e+00 3.090200000000000102e+01 3.326576000000000022e+01 5.678456717464670789e-02
2.908899999999999864e+01 -2.122899999999999920e+01 6.866400000000000148e+01 2.816657000000000011e+01 2.835512971508265603e-02
2.908999999999999986e+01 -6.006099999999999994e+00 6.567799999999999727e+01 -1.871912999999999982e+01 2.508444498274324877e-02
2.908999999999999986e+01 -4.407899999999999707e+00 6.567799999999999727e+01 -2.668319999999999936e+01 2.216327012265563445e-01
2.909100000000000108e+01 -8.125700000000000145e+00 3.248799999999999955e+01 -2.673731000000000080e+01 5.785793862258897802e-02
2.909199999999999875e+01 -2.585200000000000031e+01 6.611299999999999955e+01 4.739557999999999716e+00 2.984160530076542667e-02
2.909299999999999997e+01 -2.366199999999999903e+01 6.922100000000000364e+01 9.074642000000000763e+00 2.948605095639909510e-02
2.909400000000000119e+01 -2.524899999999999878e+01 6.437000000000000455e+01 -1.200763000000000069e+01 2.954735984814047672e-02
2.909400000000000119e+01 -3.517300000000000093e+00 6.289200000000000301e+01 8.136822000000000443e+00 2.071830933290545462e-01
2.909900000000000020e+01 -1.221100000000000030e+01 5.061599999999999966e+01 1.426976999999999940e+01 1.921152877588216679e-01
2.910200000000000031e+01 -7.585700000000000109e+00 4.829800000000000182e+01 1.055732000000000070e+01 -2.669943173813266180e-02
2.910699999999999932e+01 8.767500000000000071e+00 5.147399999999999665e+01 6.381156999999999968e+00 6.016540137955760092e-02
2.910900000000000176e+01 -1.735800000000000054e+01 5.097800000000000153e+01 -7.974719000000000113e-01 1.927290354274980577e-01
2.911199999999999832e+01 9.711000000000000298e+00 4.007099999999999795e+01 -5.591967999999999606e+00 -3.659203754496086203e-02
2.911299999999999955e+01 -3.061100000000000065e+01 5.542600000000000193e+01 -1.249956999999999985e+00 3.171011092216216576e-02
2.911499999999999844e+01 -1.515700000000000047e+00 1.103299999999999947e+01 2.518830000000000027e-02 -4.955718582862972399e-02
2.911499999999999844e+01 -2.527700000000000102e+01 6.313600000000000279e+01 1.446505999999999936e+01 2.958136822331209823e-02
2.911599999999999966e+01 -2.423300000000000054e+01 6.883700000000000330e+01 6.560772000000000048e+00 2.963252032591931484e-02
