-9.741099999999999426e+00 2.371300000000000097e+01 2.287900000000000134e+01 1.216390999999999956e+01 -2.806556972236015080e-01
-9.736000000000000654e+00 2.500100000000000122e+01 6.077700000000000102e+00 4.555816000000000088e+00 -3.117208135871579189e-01
-9.730999999999999872e+00 1.958399999999999963e+01 1.309999999999999964e+01 2.439457000000000164e+01 -3.153209198587652584e-01
-9.727999999999999758e+00 2.532900000000000063e+01 2.841700000000000159e+01 3.545777000000000179e+00 -2.789974602990634711e-01
-9.727999999999999758e+00 2.553800000000000026e+01 2.768100000000000094e+01 -3.635133000000000170e+00 -2.788585200422450949e-01
-9.711399999999999366e+00 4.133100000000000307e+01 3.140700000000000003e+01 7.740023999999999660e+01 -2.553536597338957881e-01
-9.702999999999999403e+00 2.073699999999999832e+01 6.876299999999999635e+00 6.570418999999999565e-01 -3.124566240609329970e-01
-9.702999999999999403e+00 2.073699999999999832e+01 7.815699999999999648e+00 1.749018999999999835e+01 -3.127777538486190001e-01
-9.696199999999999264e+00 3.907699999999999818e+01 2.002100000000000080e+01 -4.136892999999999709e+00 -2.549465750429698030e-01
-9.683799999999999741e+00 2.208500000000000085e+01 1.989600000000000080e+01 2.692792999999999992e+01 -2.817261232231775270e-01
-9.672100000000000364e+00 1.891799999999999926e+01 1.200799999999999912e+01 2.433637000000000050e+00 -3.148376829588721559e-01
-9.669999999999999929e+00 3.897599999999999909e+01 1.404299999999999926e+01 6.003257999999999761e+00 -2.552058768747329509e-01
-9.669999999999999929e+00 3.920700000000000074e+01 1.485800000000000054e+01 5.051050000000000040e+01 -2.552210416353263289e-01
-9.663299999999999557e+00 2.813200000000000145e+01 1.345500000000000007e+01 6.109863999999999962e+00 -2.773873230388052558e-01
-9.657299999999999329e+00 3.730599999999999739e+01 3.509700000000000131e+01 3.801740999999999815e+00 -2.540608716873846706e-01
-9.656100000000000350e+00 2.728200000000000003e+01 1.214700000000000024e+01 1.757586999999999833e+01 -2.778103914029055876e-01
-9.651400000000000645e+00 4.185699999999999932e+01 3.109600000000000009e+01 3.633787999999999840e+01 -2.555142719556859343e-01
-9.650399999999999423e+00 3.814600000000000080e+01 2.152100000000000080e+01 -4.675433999999999912e+01 -2.546032280774929157e-01
-9.650399999999999423e+00 3.814600000000000080e+01 2.238599999999999923e+01 -4.875209999999999866e+01 -2.545601234115779654e-01
-9.650299999999999656e+00 3.502100000000000080e+01 8.695000000000000284e+00 5.308923000000000059e+00 -2.546811527250999463e-01
-9.642400000000000304e+00 4.059899999999999665e+01 3.297500000000000142e+01 1.257292999999999950e+02 -2.551529037975582281e-01
-9.637000000000000455e+00 1.918700000000000117e+01 1.124900000000000055e+01 1.258317000000000085e+01 -3.144096907428703958e-01
-9.622299999999999187e+00 3.631799999999999784e+01 9.150000000000000355e+00 2.321893999999999902e+00 -2.549174174799807568e-01
-9.614300000000000068e+00 3.927900000000000347e+01 2.314499999999999957e+01 -7.508130000000000415e+00 -2.548915325636994522e-01
-9.613200000000000855e+00 2.454599999999999937e+01 2.325000000000000000e+01 4.208382000000000289e+00 -2.799169653528258972e-01
-9.598499999999999588e+00 4.116700000000000159e+01 2.242200000000000060e+01 -3.059489000000000125e+00 -2.554537434849794009e-01
-9.592000000000000526e+00 3.878199999999999648e+01 3.577900000000000347e+01 3.153227999999999920e+00 -4.354900925445388815e-02
-9.592000000000000526e+00 4.022800000000000153e+01 3.497299999999999898e+01 2.051921000000000106e+01 -4.431171754459377332e-02
-9.592000000000000526e+00 4.048199999999999932e+01 3.407900000000000063e+01 3.868661000000000172e+01 -4.419278621109885841e-02
-9.582300000000000040e+00 4.272800000000000153e+01 2.255600000000000094e+01 -1.476342000000000043e+00 -2.558411092342072757e-01
-9.577999999999999403e+00 4.080899999999999750e+01 3.207200000000000273e+01 4.788888000000000034e+01 -2.552246399578573244e-01
-9.576100000000000279e+00 2.397800000000000153e+01 2.942200000000000060e+01 6.310443999999999498e-01 -2.802437840087778631e-01
-9.573000000000000398e+00 2.240299999999999869e+01 2.192800000000000082e+01 1.163711999999999946e+01 -2.817451534433733640e-01
-9.564299999999999358e+00 3.325999999999999801e+01 9.592000000000000526e+00 -1.999173000000000089e+00 -2.755166681146921093e-01
-9.564000000000000057e+00 3.662199999999999989e+01 9.849999999999999645e+00 -2.272276000000000185e+00 -2.549409898256443929e-01
-9.564000000000000057e+00 3.668500000000000227e+01 8.314899999999999736e+00 1.202100000000000080e+01 -2.550500985919006425e-01
-9.564000000000000057e+00 3.821999999999999886e+01 9.849999999999999645e+00 -1.254696999999999996e+01 -2.552647359229634483e-01
-9.557399999999999451e+00 3.814900000000000091e+01 1.327100000000000080e+01 1.584929999999999950e+00 -2.550720097731959957e-01
-9.554999999999999716e+00 2.484900000000000020e+01 2.394999999999999929e+01 4.415294000000000274e+00 -2.796420757855676564e-01
-9.550900000000000389e+00 3.853699999999999903e+01 2.080600000000000094e+01 -2.192699999999999960e+01 -2.547749714148607181e-01
-9.549500000000000099e+00 4.294899999999999807e+01 2.798999999999999844e+01 1.476218000000000075e+01 -2.558379549265774600e-01
-9.546300000000000452e+00 2.435699999999999932e+01 3.059199999999999875e+01 -3.384225999999999956e+00 -2.797141143543290798e-01
-9.546300000000000452e+00 2.522200000000000131e+01 3.059199999999999875e+01 7.067517999999999745e+00 -2.788384101740916110e-01
-9.538399999999999324e+00 3.234300000000000352e+01 3.391100000000000136e+01 -1.181048000000000009e+01 -2.731567448955870558e-01
-9.536500000000000199e+00 2.268599999999999994e+01 3.025000000000000000e+01 3.149218999999999991e+00 -2.815164502429035043e-01
-9.532999999999999474e+00 2.501999999999999957e+01 8.206899999999999196e+00 1.630505000000000138e+01 -3.122835616092118904e-01
-9.532999999999999474e+00 2.513800000000000168e+01 9.054000000000000270e+00 3.320215999999999923e+01 -3.125428957505833605e-01
-9.530300000000000438e+00 1.966700000000000159e+01 1.725900000000000034e+01 4.408597000000000321e+00 -3.178858518577643566e-01
-9.524900000000000588e+00 3.432099999999999795e+01 5.058699999999999974e+00 -3.588912000000000213e-01 -2.755835809151999660e-01
-9.522199999999999775e+00 3.404999999999999716e+01 8.201999999999999957e+00 1.842300999999999966e+00 -2.753929650895646786e-01
-9.519999999999999574e+00 3.892600000000000193e+01 1.576099999999999923e+01 1.899832000000000107e+02 -2.551339765804204185e-01
-9.519800000000000040e+00 4.257600000000000051e+01 2.868700000000000117e+01 1.862660999999999945e+01 -2.557440473076658116e-01
-9.519800000000000040e+00 4.257600000000000051e+01 2.955300000000000082e+01 8.604471999999999454e+00 -2.557388236014718208e-01
-9.505499999999999616e+00 3.557800000000000296e+01 1.182900000000000063e+01 5.389198000000000377e+00 -2.545716635857490084e-01
-9.502000000000000668e+00 3.061599999999999966e+01 3.295000000000000284e+01 -3.101694999999999869e-01 -2.741543423941789070e-01
-9.501899999999999125e+00 2.791700000000000159e+01 1.263199999999999967e+01 5.239733000000000196e+00 -2.774764589336335963e-01
-9.500700000000000145e+00 3.608599999999999852e+01 1.200999999999999979e+01 3.179609000000000130e+00 -2.546788670621692452e-01
-9.500700000000000145e+00 3.695100000000000051e+01 1.060999999999999943e+01 -4.562304000000000137e+00 -2.549697667880692076e-01
-9.500700000000000145e+00 3.695100000000000051e+01 1.200999999999999979e+01 9.561085000000000278e-01 -2.548801440694244413e-01
-9.500700000000000145e+00 3.789099999999999824e+01 9.089999999999999858e+00 -2.261893999999999849e+00 -2.552470582795151599e-01
-9.500400000000000844e+00 4.407399999999999807e+01 2.487300000000000111e+01 1.809388999999999914e+00 -2.561349514662437654e-01
-9.500400000000000844e+00 4.407399999999999807e+01 2.648499999999999943e+01 -1.160056999999999894e+00 -2.561235679443640278e-01
-9.487000000000000099e+00 4.403900000000000148e+01 2.707000000000000028e+01 -1.020580999999999960e+01 -2.561147796400605192e-01
-9.471999999999999531e+00 2.302199999999999847e+01 2.947500000000000142e+01 5.739760999999999669e+00 -2.812475404599504292e-01
-9.471999999999999531e+00 2.302199999999999847e+01 3.102499999999999858e+01 1.563593000000000011e+01 -2.810558862622835052e-01
-9.471999999999999531e+00 2.398000000000000043e+01 3.102499999999999858e+01 6.475806000000000395e+00 -2.800411369082536073e-01
-9.463100000000000733e+00 4.435900000000000176e+01 2.567899999999999849e+01 7.644148999999999639e+00 -2.561984032872764439e-01
-9.461499999999999133e+00 3.325399999999999778e+01 3.404699999999999704e+01 -2.758878000000000164e+00 -2.522926053708435257e-01
-9.445000000000000284e+00 3.071000000000000085e+01 3.385199999999999676e+01 -5.827143999999999657e-01 -2.740104110079309985e-01
-9.445000000000000284e+00 2.696600000000000108e+01 3.105000000000000071e+01 1.533963999999999928e+01 -2.770982931053027065e-01
-9.440599999999999881e+00 2.059600000000000009e+01 1.005899999999999928e+01 2.450871000000000066e+01 -3.136071209188122100e-01
-9.440400000000000347e+00 3.970199999999999818e+01 1.843599999999999994e+01 -1.413700000000000045e+01 -2.552246628837470666e-01
-9.440400000000000347e+00 3.272399999999999665e+01 9.015000000000000568e+00 -1.598899999999999988e+00 -2.757143524371711840e-01
-9.432299999999999685e+00 2.491300000000000026e+01 2.580399999999999849e+01 -2.673925999999999803e+00 -2.795292580568871643e-01
-9.430899999999999395e+00 2.993499999999999872e+01 1.198300000000000054e+01 9.880480000000000373e-01 -2.765564300931281361e-01
-9.428000000000000824e+00 3.881799999999999784e+01 1.731500000000000128e+01 2.419413000000000036e+00 -2.550452172862625044e-01
-9.427899999999999281e+00 1.979899999999999949e+01 1.783500000000000085e+01 3.558724000000000220e+00 -3.182605520150498801e-01
-9.424699999999999633e+00 3.514999999999999858e+01 2.258500000000000085e+01 -2.957032999999999845e+01 -2.535063235902089152e-01
-9.423700000000000188e+00 4.371000000000000085e+01 2.782999999999999829e+01 -4.051885999999999655e+00 -2.560478171964420957e-01
-9.421300000000000452e+00 4.276899999999999835e+01 3.022599999999999909e+01 4.012785000000000046e+00 -2.558055679637464275e-01
-9.414500000000000313e+00 2.378500000000000014e+01 2.330900000000000105e+01 1.006264999999999965e+01 -2.806048294229294693e-01
-9.411300000000000665e+00 2.277599999999999980e+01 5.227699999999999569e+00 5.075123000000000273e-01 -3.116560825854247652e-01
-9.411300000000000665e+00 2.447599999999999909e+01 5.227699999999999569e+00 2.629484000000000155e+00 -3.114708100643735489e-01
-9.406200000000000117e+00 3.778600000000000136e+01 1.080400000000000027e+01 -8.810534000000000532e+00 -2.551473242560514110e-01
-9.396000000000000796e+00 4.010699999999999932e+01 1.910399999999999920e+01 -1.520533000000000001e+01 -2.553118159860570668e-01
-9.389200000000000657e+00 2.606099999999999994e+01 1.145700000000000074e+01 8.553179999999999339e+00 -2.783524247248214123e-01
-9.385300000000000864e+00 3.756499999999999773e+01 8.516500000000000625e+00 3.403995000000000215e-01 -2.552287168643567750e-01
-9.381700000000000372e+00 3.103900000000000148e+01 3.461200000000000188e+01 -1.849077999999999999e+00 -2.737447766357445356e-01
-9.381700000000000372e+00 3.197899999999999920e+01 3.461200000000000188e+01 -5.696790000000000020e+00 -2.732308450641552366e-01
-9.377000000000000668e+00 2.283500000000000085e+01 2.281400000000000006e+01 6.900002999999999886e+00 -2.814580680353807596e-01
-9.369999999999999218e+00 3.009799999999999898e+01 1.096400000000000041e+01 2.033440000000000136e+00 -2.765289772479628816e-01
-9.369999999999999218e+00 3.866700000000000159e+01 1.658500000000000085e+01 6.874412000000000411e+00 -2.550510067505942779e-01
-9.366899999999999338e+00 1.987900000000000134e+01 1.427299999999999969e+01 4.924159000000000397e+00 -3.158719720177132206e-01
-9.356899999999999551e+00 1.968400000000000105e+01 1.664199999999999946e+01 4.082290999999999670e+00 -3.174416243883347311e-01
-9.353400000000000603e+00 3.662800000000000011e+01 3.428199999999999648e+01 -4.651080999999999577e+00 -2.538088534022795439e-01
-9.352000000000000313e+00 4.375500000000000256e+01 2.421900000000000119e+01 -5.492536000000000307e+00 -2.560997949564275400e-01
-9.348399999999999821e+00 2.454100000000000037e+01 2.439799999999999969e+01 -2.164095000000000046e-01 -2.799086139697722908e-01
-9.348000000000000753e+00 4.255700000000000216e+01 3.103800000000000026e+01 1.463852999999999938e+01 -2.557630721671240726e-01
-9.345900000000000318e+00 2.411299999999999955e+01 2.394999999999999929e+01 1.263549000000000033e+00 -2.803130096926562675e-01
-9.345299999999999940e+00 3.432200000000000273e+01 3.404800000000000182e+01 1.406014000000000053e+01 -2.527997466029592299e-01
-9.337199999999999278e+00 3.350000000000000000e+01 7.444399999999999906e+00 1.908476000000000061e-01 -2.755847370027383891e-01
-9.332700000000000884e+00 3.977799999999999869e+01 1.986400000000000077e+01 -1.449778000000000056e+01 -2.552074710282464798e-01
-9.331699999999999662e+00 2.932499999999999929e+01 1.450699999999999967e+01 1.742358000000000118e+01 -2.766847863925391282e-01
-9.331699999999999662e+00 3.019000000000000128e+01 1.450699999999999967e+01 4.378472000000000364e+00 -2.762615998501910530e-01
-9.318099999999999383e+00 3.704699999999999704e+01 7.435999999999999943e+00 5.626183000000000156e+00 -2.551980804920687129e-01
-9.306400000000000006e+00 3.121300000000000097e+01 9.895599999999999952e+00 1.498763000000000067e+00 -2.761465285217342691e-01
-9.304500000000000881e+00 3.443500000000000227e+01 2.335200000000000031e+01 -2.642717000000000027e+01 -2.531647608011740602e-01
-9.297000000000000597e+00 3.369299999999999784e+01 8.891999999999999460e+00 -4.354817999999999856e+00 -2.753915333702549040e-01
-9.295400000000000773e+00 2.483800000000000097e+01 2.881400000000000006e+01 4.873025999999999747e-01 -2.793821679041105233e-01
-9.295199999999999463e+00 2.880000000000000071e+01 3.121900000000000119e+01 -5.827258999999999745e+00 -2.754729023647284891e-01
-9.293100000000000804e+00 3.461500000000000199e+01 9.321300000000000807e+00 4.966274000000000299e+00 -2.750729142332496990e-01
-9.290100000000000691e+00 2.484499999999999886e+01 2.509799999999999898e+01 -1.938776000000000055e+00 -2.796003702225450249e-01
-9.289999999999999147e+00 2.287800000000000011e+01 2.477700000000000102e+01 -1.663056000000000090e+00 -2.815488271678742160e-01
-9.287300000000000111e+00 3.753000000000000114e+01 1.229199999999999982e+01 1.764696999999999960e+00 -2.550227261697771142e-01
-9.281100000000000350e+00 2.900900000000000034e+01 1.374699999999999989e+01 1.307663999999999938e+01 -2.768681663315964436e-01
-9.274699999999999278e+00 3.590800000000000125e+01 4.634999999999999787e+00 -3.042725000000000013e-01 -2.551622076945413431e-01
-9.273400000000000531e+00 3.049399999999999977e+01 1.380700000000000038e+01 -1.883531000000000066e+00 -2.761579453659070427e-01
-9.271000000000000796e+00 3.323799999999999955e+01 8.211999999999999744e+00 -1.060504000000000030e-01 -2.755864297578459743e-01
-9.253500000000000725e+00 3.737800000000000011e+01 1.169800000000000040e+01 -2.557279000000000080e-01 -2.550281920552118775e-01
-9.252000000000000668e+00 1.999500000000000099e+01 1.520899999999999963e+01 4.738828999999999958e+00 -3.164068913813754547e-01
-9.251099999999999213e+00 2.138500000000000156e+01 1.876300000000000168e+01 1.008146999999999949e+01 -2.821093440541646014e-01
-9.245100000000000762e+00 2.521499999999999986e+01 1.014499999999999957e+01 1.155874999999999986e+01 -3.128336584250505092e-01
-9.245100000000000762e+00 2.542399999999999949e+01 1.088100000000000023e+01 6.716822999999999766e+00 -3.130721566452877580e-01
-9.240700000000000358e+00 3.565400000000000347e+01 9.470200000000000173e+00 1.670085999999999871e+01 -2.548010093777018925e-01
-9.237899999999999778e+00 3.516199999999999903e+01 3.403199999999999648e+01 6.395946000000000353e+00 -2.531886464152986460e-01
-9.235900000000000887e+00 4.199699999999999989e+01 2.238800000000000168e+01 -2.878254999999999786e+00 -2.557341443047874141e-01
-9.234799999999999898e+00 3.600200000000000244e+01 3.407399999999999807e+01 -1.913837000000000010e+00 -2.535564981766342818e-01
-9.234799999999999898e+00 3.431199999999999761e+01 1.002100000000000080e+01 3.092455000000000176e+00 -2.750760726142698065e-01
-9.233299999999999841e+00 3.651899999999999835e+01 1.131000000000000050e+01 1.279012000000000038e+00 -2.548622904763492847e-01
-9.230499999999999261e+00 2.869300000000000139e+01 1.298600000000000065e+01 5.733210999999999835e+00 -2.770416358128579004e-01
-9.230499999999999261e+00 3.016499999999999915e+01 1.298600000000000065e+01 4.344448000000000198e-01 -2.763543013795271008e-01
-9.220599999999999241e+00 4.314699999999999847e+01 2.316300000000000026e+01 -4.271065000000000111e+01 -2.559997214098422846e-01
-9.217800000000000438e+00 3.884599999999999653e+01 2.265399999999999991e+01 -1.681205999999999889e+01 -2.548426307112333089e-01
-9.217800000000000438e+00 3.971200000000000330e+01 2.265399999999999991e+01 -3.199818000000000051e+00 -2.551086195364610787e-01
-9.215600000000000236e+00 3.588600000000000279e+01 2.258500000000000085e+01 -6.041543999999999670e+01 -2.538143506068060162e-01
-9.215299999999999159e+00 4.017600000000000193e+01 2.246399999999999864e+01 -3.787370999999999821e+00 -2.552505844066605967e-01
-9.213200000000000500e+00 3.591899999999999693e+01 1.107399999999999984e+01 1.746591000000000005e+00 -2.547447384006505944e-01
-9.196199999999999264e+00 3.853699999999999903e+01 1.354700000000000060e+01 1.443837000000000037e+00 -2.551978765437041830e-01
-9.188399999999999679e+00 3.496300000000000097e+01 1.101900000000000013e+01 2.832164000000000126e+00 -2.545296382971456994e-01
-9.184699999999999420e+00 3.424000000000000199e+01 2.256099999999999994e+01 -7.876420000000000421e+00 -2.531669976364224750e-01
-9.178900000000000503e+00 2.367599999999999838e+01 2.477700000000000102e+01 -1.907440000000000024e+00 -2.807497113841656011e-01
-9.171400000000000219e+00 3.490200000000000102e+01 4.503700000000000259e+00 -1.313103999999999938e-01 -2.754268343383986517e-01
-9.169999999999999929e+00 2.116799999999999926e+01 7.346000000000000085e+00 1.878686000000000078e+01 -3.124167756730050760e-01
-9.159499999999999531e+00 3.854299999999999926e+01 2.195400000000000063e+01 -2.482120000000000104e+01 -2.547867003883172443e-01
-9.157799999999999940e+00 2.202899999999999991e+01 2.067399999999999949e+01 4.001955999999999847e+01 -2.819336440305394986e-01
-9.157299999999999329e+00 3.471699999999999875e+01 2.188500000000000156e+01 -3.060615999999999914e+01 -2.534254537748955594e-01
-9.157299999999999329e+00 3.558200000000000074e+01 2.188500000000000156e+01 -9.450717000000000212e+01 -2.537597832840728374e-01
-9.147100000000000009e+00 2.335200000000000031e+01 2.400900000000000034e+01 4.378293999999999797e-01 -2.810491867356369466e-01
-9.145400000000000418e+00 4.129999999999999716e+01 3.167500000000000071e+01 3.352712999999999965e+01 -2.554540012491346435e-01
-9.137700000000000600e+00 3.828199999999999648e+01 3.592799999999999727e+01 3.450082000000000093e+00 -4.320083691640080881e-02
-9.131999999999999673e+00 2.350100000000000122e+01 2.887900000000000134e+01 1.032408999999999910e+00 -2.807899960612129653e-01
-9.130100000000000549e+00 3.613100000000000023e+01 1.031900000000000084e+01 3.608005000000000240e-01 -2.548568821687459685e-01
-9.130100000000000549e+00 3.871099999999999852e+01 9.381000000000000227e+00 2.394599000000000033e-01 -2.554375660623363076e-01
-9.126699999999999591e+00 3.974000000000000199e+01 3.553900000000000148e+01 1.089140000000000086e+01 -4.416119358313631837e-02
-9.126099999999999213e+00 1.901999999999999957e+01 1.248300000000000054e+01 3.024093999999999838e+00 -3.149570316889318544e-01
-9.125500000000000611e+00 2.100900000000000034e+01 9.606799999999999784e+00 1.471828000000000003e+01 -3.132720746810003787e-01
-9.125500000000000611e+00 2.121799999999999997e+01 8.870699999999999363e+00 4.923474000000000217e+01 -3.129486453662215228e-01
-9.112999999999999545e+00 2.107400000000000162e+01 8.247600000000000264e+00 3.796994999999999720e+01 -3.127307811219733891e-01
-9.108999999999999986e+00 3.860300000000000153e+01 8.747500000000000497e+00 4.332989999999999675e+00 -2.554474410599611445e-01
-9.102299999999999613e+00 3.213499999999999801e+01 8.912000000000000810e+00 8.298062999999999967e-02 -2.758522588064288850e-01
-9.098100000000000520e+00 2.234700000000000131e+01 2.401800000000000068e+01 1.935399999999999898e-01 -2.820517652788619989e-01
-9.093700000000000117e+00 1.960999999999999943e+01 1.085100000000000087e+01 3.096109000000000222e+00 -3.140255543553346351e-01
-9.091900000000000759e+00 3.361599999999999966e+01 2.324399999999999977e+01 4.701737999999999751e-01 -2.528431032633920439e-01
-9.090999999999999304e+00 2.447500000000000142e+01 3.128200000000000003e+01 1.144910999999999923e+01 -2.794362468295819579e-01
-9.090999999999999304e+00 2.533999999999999986e+01 3.128200000000000003e+01 1.078262999999999927e+01 -2.785303507014543767e-01
-9.087199999999999278e+00 4.327600000000000335e+01 2.842000000000000171e+01 -2.794166999999999845e+00 -2.560106177217979506e-01
-9.086000000000000298e+00 3.706099999999999994e+01 3.498199999999999932e+01 2.237335999999999991e+00 -2.540403808163892441e-01
-9.066900000000000404e+00 3.624699999999999989e+01 2.295100000000000051e+01 -2.728724000000000061e+01 -2.539456202015692998e-01
-9.064299999999999358e+00 2.975799999999999912e+01 1.380700000000000038e+01 1.294458000000000020e+01 -2.764529500750780855e-01
-9.063000000000000611e+00 2.207900000000000063e+01 2.477700000000000102e+01 -8.862287000000000248e+00 -2.823849650227940877e-01
-9.045299999999999230e+00 3.062300000000000111e+01 1.011400000000000077e+01 4.148274999999999935e+00 -2.763049772943461102e-01
-9.044000000000000483e+00 3.243900000000000006e+01 8.211999999999999744e+00 -3.934702000000000144e+00 -2.757949950536705552e-01
-9.040699999999999292e+00 3.408500000000000085e+01 2.416000000000000014e+01 -1.950252000000000052e+01 -2.529668784145729377e-01
-9.040699999999999292e+00 3.495100000000000051e+01 2.416000000000000014e+01 -2.139776000000000167e+01 -2.533415884818190356e-01
-9.040399999999999991e+00 2.416100000000000136e+01 2.531700000000000017e+01 -1.137326000000000015e+01 -2.802540562404833846e-01
-9.032899999999999707e+00 2.350100000000000122e+01 3.156899999999999906e+01 6.624518000000000484e+01 -2.804451542403468833e-01
-9.031000000000000583e+00 3.865100000000000335e+01 1.032000000000000028e+01 -3.051175999999999888e+01 -2.553980669212226884e-01
-9.031000000000000583e+00 1.952599999999999980e+01 1.340300000000000047e+01 1.164899999999999913e+01 -3.153647912859547375e-01
-9.029099999999999682e+00 4.459100000000000108e+01 2.663700000000000045e+01 -2.130380000000000162e+00 -2.563323019693659055e-01
-9.028900000000000148e+00 4.297299999999999898e+01 2.912000000000000099e+01 9.731916999999999263e+00 -2.559438130379142473e-01
-9.028000000000000469e+00 2.527100000000000080e+01 2.724800000000000111e+01 -1.169130000000000003e+01 -2.790259688638268565e-01
-9.028000000000000469e+00 2.527100000000000080e+01 2.811400000000000077e+01 7.616197000000000106e-01 -2.789534177457412278e-01
-9.021399999999999864e+00 2.942899999999999849e+01 1.298600000000000065e+01 4.929631999999999792e+00 -2.766471683443997298e-01
-9.017099999999999227e+00 2.840299999999999869e+01 1.218900000000000006e+01 7.391934000000000005e+00 -2.771635067616059489e-01
-9.017099999999999227e+00 2.926899999999999835e+01 1.218900000000000006e+01 4.941006999999999927e+00 -2.767591325709746752e-01
-9.016400000000000858e+00 3.347200000000000131e+01 6.386899999999999800e+00 4.068919000000000175e+00 -2.756223101980873613e-01
-9.016400000000000858e+00 3.707800000000000296e+01 6.386899999999999800e+00 7.591463000000000072e+00 -2.552951725454267740e-01
-9.015499999999999403e+00 2.642099999999999937e+01 3.132900000000000063e+01 8.895889999999999631e+00 -2.774237288421098624e-01
-9.011799999999999145e+00 3.683700000000000330e+01 5.598200000000000287e+00 -4.655069000000000123e+00 -2.552948296710844112e-01
-9.008599999999999497e+00 3.594400000000000261e+01 2.365099999999999980e+01 -2.666709000000000174e+01 -2.537889367765799875e-01
-9.007999999999999119e+00 2.010500000000000043e+01 1.045599999999999952e+01 4.472890999999999728e+00 -3.137445030125838308e-01
-8.999700000000000699e+00 2.240800000000000125e+01 2.553699999999999903e+01 -6.085974000000000217e+00 -2.820893043782645160e-01
-8.999700000000000699e+00 2.334799999999999898e+01 2.553699999999999903e+01 -2.573645000000000138e+01 -2.810956674299874281e-01
-8.996199999999999974e+00 3.934400000000000119e+01 2.045400000000000063e+01 -2.983263000000000176e+01 -2.551217071482095311e-01
-8.993000000000000327e+00 2.224699999999999989e+01 2.977100000000000080e+01 3.042451999999999934e+00 -2.821108954401250757e-01
-8.993000000000000327e+00 2.224699999999999989e+01 3.072899999999999920e+01 3.169684999999999864e+00 -2.819846854955185833e-01
-8.992000000000000881e+00 2.413800000000000168e+01 2.887199999999999989e+01 3.634962999999999944e+00 -2.800847899585822698e-01
-8.989699999999999136e+00 3.322599999999999909e+01 2.405900000000000105e+01 3.030514000000000152e+00 -2.525936919322142593e-01
-8.988099999999999312e+00 3.286599999999999966e+01 3.467399999999999949e+01 -4.814383000000000301e+00 -2.521501347346751798e-01
-8.983800000000000452e+00 2.181800000000000139e+01 1.946300000000000097e+01 1.615433000000000163e+01 -2.819205907189626936e-01
-8.980700000000000571e+00 3.276800000000000068e+01 7.451999999999999957e+00 -2.562150999999999734e-01 -2.757390659331050986e-01
-8.975300000000000722e+00 3.816299999999999670e+01 7.982999999999999652e+00 3.266458000000000084e+00 -2.554174780486136997e-01
-8.970000000000000639e+00 3.807500000000000284e+01 1.278100000000000058e+01 3.229747000000000146e+00 -2.551639975528662285e-01
-8.958999999999999631e+00 3.382900000000000063e+01 5.584299999999999820e+00 -3.508118000000000070e-01 -2.755785052204133279e-01
-8.954000000000000625e+00 4.446999999999999886e+01 2.753999999999999915e+01 -2.328944999999999865e+01 -2.563184189020339954e-01
-8.953300000000000480e+00 4.357999999999999829e+01 2.386299999999999955e+01 -1.219819999999999993e+01 -2.561447995918602616e-01
-8.951399999999999579e+00 4.299000000000000199e+01 3.152899999999999991e+01 1.014967000000000041e+01 -4.535022174527816863e-02
-8.951100000000000279e+00 3.150900000000000034e+01 3.514500000000000313e+01 -4.703702999999999967e+00 -2.732223683659116276e-01
-8.947699999999999321e+00 2.068499999999999872e+01 1.870499999999999829e+01 8.217133999999999716e+00 -2.826683901501526597e-01
-8.942700000000000315e+00 2.953800000000000026e+01 3.126500000000000057e+01 -2.674812999999999974e+01 -2.747297628955408522e-01
-8.941399999999999793e+00 2.451599999999999824e+01 2.623699999999999832e+01 -6.476982999999999713e+00 -2.798543041738465464e-01
-8.937300000000000466e+00 3.936699999999999733e+01 1.771799999999999997e+01 -2.674272000000000205e+00 -2.552507688524015550e-01
-8.936999999999999389e+00 1.924500000000000099e+01 1.155199999999999960e+01 2.490491000000000010e+00 -3.143867205898951411e-01
-8.930400000000000560e+00 4.316599999999999682e+01 2.979299999999999926e+01 3.601021999999999945e+00 -2.560100254062138703e-01
-8.923299999999999343e+00 2.746499999999999986e+01 1.175200000000000067e+01 1.013429000000000002e+01 -2.776043881725978046e-01
-8.920999999999999375e+00 3.539500000000000313e+01 1.031900000000000084e+01 2.173439000000000121e+00 -2.547182331077324502e-01
-8.913600000000000634e+00 4.134000000000000341e+01 2.223100000000000165e+01 -2.830458999999999836e+00 -2.556327852802314782e-01
-8.912200000000000344e+00 3.327799999999999869e+01 2.254100000000000037e+01 1.286641999999999975e+01 -2.736165767846197028e-01
-8.912000000000000810e+00 3.027899999999999991e+01 3.338199999999999790e+01 1.065655999999999937e+00 -2.740180022175974228e-01
-8.912000000000000810e+00 3.027899999999999991e+01 3.432200000000000273e+01 1.294680000000000053e+00 -2.739627766620160720e-01
-8.906499999999999417e+00 4.209199999999999875e+01 3.155699999999999861e+01 2.069649000000000072e+01 -2.557286275312126156e-01
-8.903999999999999915e+00 1.930999999999999872e+01 1.673400000000000176e+01 3.688870999999999789e+00 -3.175593045191973940e-01
-8.903999999999999915e+00 1.930999999999999872e+01 1.778399999999999892e+01 2.888482999999999912e+00 -3.183395087342787422e-01
-8.894999999999999574e+00 3.891100000000000136e+01 1.437899999999999956e+01 2.214922999999999931e+01 -2.552906901010864038e-01
-8.894500000000000739e+00 3.906300000000000239e+01 1.533699999999999974e+01 1.163893999999999949e+02 -2.552840167932781124e-01
-8.893100000000000449e+00 4.345100000000000051e+01 3.059900000000000020e+01 6.501098999999999961e+00 -2.560853514725928148e-01
-8.891999999999999460e+00 4.063100000000000023e+01 3.449300000000000210e+01 1.567051999999999978e+01 -4.444812926701163791e-02
-8.886400000000000077e+00 3.363400000000000034e+01 2.183699999999999974e+01 2.252072000000000074e+00 -2.530156746986133021e-01
-8.885999999999999233e+00 2.217999999999999972e+01 5.709299999999999820e+00 9.907962999999999631e-01 -3.117072014285248160e-01
-8.885999999999999233e+00 2.362600000000000122e+01 4.902999999999999581e+00 5.739277999999999880e-01 -3.113330481575867781e-01
-8.885999999999999233e+00 2.507199999999999918e+01 5.709299999999999820e+00 5.842933000000000376e+00 -3.113786494825652174e-01
-8.885999999999999233e+00 2.532600000000000051e+01 6.602999999999999758e+00 4.464221000000000217e+00 -3.115851052849320513e-01
-8.884499999999999176e+00 3.951100000000000279e+01 2.196300000000000097e+01 -5.597458999999999740e+00 -2.551335280956352203e-01
-8.883699999999999264e+00 3.202600000000000335e+01 2.267399999999999949e+01 1.848456000000000099e+00 -2.742062647143380105e-01
-8.881500000000000838e+00 4.083800000000000097e+01 3.335999999999999943e+01 8.142445000000000377e+00 -4.423387279517605741e-02
-8.878000000000000114e+00 4.086699999999999733e+01 3.237500000000000000e+01 3.186821000000000126e+01 -4.397146603729856079e-02
-8.868399999999999395e+00 4.360900000000000176e+01 3.175700000000000145e+01 6.707201000000000413e+00 -4.583948402991801924e-02
-8.867000000000000881e+00 4.484000000000000341e+01 2.515399999999999991e+01 3.746170999999999918e+00 -2.564244644000928663e-01
-8.867000000000000881e+00 4.484000000000000341e+01 2.620400000000000063e+01 6.669837000000000238e+00 -2.564206147248498935e-01
-8.863699999999999690e+00 3.379699999999999704e+01 3.464399999999999835e+01 1.746099999999999985e+00 -2.526099966124636942e-01
-8.862999999999999545e+00 4.053799999999999670e+01 1.863400000000000034e+01 -6.505512000000000405e+00 -2.555306206853975581e-01
-8.862999999999999545e+00 4.053799999999999670e+01 1.957400000000000162e+01 -1.875920999999999950e+01 -2.555022608664222483e-01
-8.853899999999999437e+00 2.287800000000000011e+01 2.631200000000000117e+01 -2.411383999999999972e+00 -2.816083761739444635e-01
-8.853500000000000369e+00 3.145400000000000063e+01 9.344599999999999795e+00 9.918200999999999823e-01 -2.760088399382115143e-01
-8.850600000000000023e+00 2.238100000000000023e+01 2.322500000000000142e+01 1.108721999999999985e+00 -2.819701664698660570e-01
-8.849099999999999966e+00 3.924000000000000199e+01 2.121399999999999864e+01 -7.642927000000000248e+00 -2.550873168556604953e-01
-8.844099999999999184e+00 3.543800000000000239e+01 4.102000000000000313e+00 -4.339602000000000182e-01 -2.551612428934869614e-01
-8.837999999999999190e+00 3.272200000000000131e+01 2.324399999999999977e+01 9.609377000000000280e+00 -2.737370957793412440e-01
-8.833199999999999719e+00 2.518799999999999883e+01 7.482800000000000118e+00 8.126032000000000366e+00 -3.118377840150403091e-01
-8.812500000000000000e+00 2.591499999999999915e+01 1.127800000000000047e+01 1.063471000000000011e+01 -3.130094532012676067e-01
-8.804999999999999716e+00 3.666799999999999926e+01 4.925300000000000011e+00 -1.331911000000000023e+01 -2.553246365062364354e-01
-8.797399999999999665e+00 3.825500000000000256e+01 1.115000000000000036e+01 -3.317839999999999900e+00 -2.553108871435264549e-01
-8.796400000000000219e+00 3.792699999999999960e+01 1.185999999999999943e+01 -2.735853000000000090e+00 -2.552041771774897772e-01
-8.795999999999999375e+00 2.264099999999999824e+01 2.893400000000000105e+01 6.647698000000000107e+00 -2.817649381100467698e-01
-8.789999999999999147e+00 3.753999999999999915e+01 3.575699999999999790e+01 4.859572000000000003e+00 -4.249351377989041972e-02
-8.780599999999999739e+00 3.249000000000000199e+01 2.405900000000000105e+01 -1.489424999999999999e+00 -2.736997026048956227e-01
-8.780400000000000205e+00 2.197500000000000142e+01 2.149399999999999977e+01 4.724993999999999694e+00 -2.821431345458850215e-01
-8.775800000000000267e+00 2.221600000000000108e+01 2.228300000000000125e+01 9.146036000000000499e+00 -2.820287875589057025e-01
-8.768299999999999983e+00 4.250999999999999801e+01 2.290899999999999892e+01 -9.834943000000000879e+00 -2.559445121562919923e-01
-8.766899999999999693e+00 3.912800000000000011e+01 3.589399999999999835e+01 -1.352154000000000078e+00 -4.383715007106046835e-02
-8.758900000000000574e+00 2.186299999999999955e+01 6.302299999999999791e+00 6.782620999999999789e-01 -3.118803887096871508e-01
-8.756899999999999906e+00 3.423100000000000165e+01 4.759900000000000020e+00 8.230307000000000595e-02 -2.755065088190579159e-01
-8.739399999999999835e+00 2.962699999999999889e+01 1.143299999999999983e+01 2.538206999999999880e+00 -2.765796533696455728e-01
-8.732300000000000395e+00 2.378000000000000114e+01 2.623699999999999832e+01 -3.400199999999999889e+00 -2.806239027723673174e-01
-8.730000000000000426e+00 3.482200000000000273e+01 2.132100000000000151e+01 -3.710325999999999880e+01 -2.535674008949886926e-01
-8.730000000000000426e+00 3.568800000000000239e+01 2.132100000000000151e+01 -5.591599999999999682e+01 -2.539009420924234206e-01
-8.728999999999999204e+00 2.287099999999999866e+01 2.692200000000000060e+01 -2.157922999999999814e+00 -2.816168769866399524e-01
-8.727299999999999613e+00 3.909000000000000341e+01 9.026999999999999247e+00 7.686498000000000497e-01 -2.555772154036506372e-01
-8.722300000000000608e+00 3.279299999999999926e+01 2.475900000000000034e+01 -6.927519000000000204e+00 -2.734065318577080239e-01
-8.721399999999999153e+00 3.986699999999999733e+01 1.781500000000000128e+01 -4.925553999999999766e-01 -2.554137087988102572e-01
-8.719400000000000261e+00 4.374600000000000222e+01 2.907999999999999829e+01 9.681876000000000371e-02 -2.561993097862201862e-01
-8.712099999999999511e+00 2.712099999999999866e+01 3.127100000000000080e+01 1.270594999999999963e+01 -2.766466196285848889e-01
-8.711000000000000298e+00 3.025900000000000034e+01 3.245799999999999841e+01 -1.916207000000000049e-01 -2.739825133520538691e-01
-8.698800000000000310e+00 3.747800000000000153e+01 6.882200000000000095e+00 2.241728000000000165e+00 -2.553797854250899890e-01
-8.696999999999999176e+00 2.272599999999999909e+01 3.150400000000000134e+01 1.112881999999999927e+01 -2.813301103284372440e-01
-8.680099999999999483e+00 3.436699999999999733e+01 2.484600000000000009e+01 -1.939404000000000039e+01 -2.530689247608463033e-01
-8.678599999999999426e+00 3.109799999999999898e+01 2.280199999999999960e+01 -1.322165000000000035e+01 -2.746196109493326820e-01
-8.672000000000000597e+00 2.490800000000000125e+01 3.198199999999999932e+01 6.034773000000000387e+00 -2.787847850520858151e-01
-8.672000000000000597e+00 2.586599999999999966e+01 3.198199999999999932e+01 5.899199000000000304e+00 -2.777745507456461649e-01
-8.669999999999999929e+00 3.893399999999999750e+01 1.615200000000000102e+01 3.473181999999999903e+01 -2.552521661474944636e-01
-8.669999999999999929e+00 3.893399999999999750e+01 1.701800000000000068e+01 1.594006000000000034e+00 -2.552130120571172167e-01
-8.645099999999999341e+00 3.646999999999999886e+01 3.464999999999999858e+01 7.683079000000000436e-01 -2.538496774982955673e-01
-8.621700000000000585e+00 3.226899999999999835e+01 3.508200000000000074e+01 -2.503095000000000070e+01 -2.518820811526774617e-01
-8.620300000000000296e+00 3.140099999999999980e+01 2.350199999999999889e+01 -7.745325000000000237e+00 -2.743088650742856460e-01
-8.616300000000000736e+00 3.159400000000000119e+01 2.197400000000000020e+01 -1.272326999999999941e+01 -2.744287736966438684e-01
-8.616099999999999426e+00 2.497800000000000153e+01 9.599700000000000344e+00 1.291000000000000014e+01 -3.124924584196914767e-01
-8.613699999999999690e+00 4.019500000000000028e+01 2.038800000000000168e+01 -4.585060000000000002e+01 -2.554333013856605605e-01
-8.612299999999999400e+00 3.272200000000000131e+01 2.184600000000000009e+01 3.193205999999999989e+00 -2.738561494365935323e-01
-8.610900000000000887e+00 2.051899999999999835e+01 9.970000000000000639e+00 4.401074000000000375e+00 -3.133556607257256266e-01
-8.606600000000000250e+00 2.368700000000000117e+01 2.695100000000000051e+01 -2.123317000000000121e+01 -2.806985478065274764e-01
-8.595399999999999707e+00 2.370499999999999829e+01 2.838100000000000023e+01 5.646673999999999971e+00 -2.805874794962903707e-01
-8.595399999999999707e+00 2.457100000000000151e+01 2.698100000000000165e+01 -1.004288000000000025e+01 -2.797147465005943023e-01
-8.595399999999999707e+00 2.457100000000000151e+01 2.838100000000000023e+01 6.969458000000000375e+00 -2.796051868113639260e-01
-8.593099999999999739e+00 3.903999999999999915e+01 8.274800000000000821e+00 7.455650999999999584e+00 -2.556145404403933896e-01
-8.591499999999999915e+00 2.420100000000000051e+01 3.195499999999999829e+01 4.585607000000000255e+01 -2.795538428196400194e-01
-8.586100000000000065e+00 3.188700000000000045e+01 8.644600000000000506e+00 -6.412684999999999746e+00 -2.758574535772365666e-01
-8.579299999999999926e+00 1.983500000000000085e+01 1.863400000000000034e+01 4.173517000000000365e+00 -3.188525001162961781e-01
-8.576200000000000045e+00 2.168599999999999994e+01 7.735999999999999766e+00 1.484338999999999942e+01 -3.123114369266627444e-01
-8.576000000000000512e+00 3.664399999999999835e+01 2.251800000000000068e+01 -2.606471000000000160e+01 -2.541964313677196330e-01
-8.576000000000000512e+00 3.664399999999999835e+01 2.338400000000000034e+01 -2.031096000000000146e+01 -2.541423550781215512e-01
-8.571099999999999497e+00 1.878200000000000003e+01 1.310100000000000087e+01 8.167536999999999381e+00 -3.152221436200290938e-01
-8.558999999999999275e+00 2.197800000000000153e+01 2.601999999999999957e+01 -1.866260999999999948e+00 -2.826379658412228046e-01
-8.551999999999999602e+00 1.972800000000000153e+01 1.564199999999999946e+01 1.058112000000000030e+01 -3.166474107094874868e-01
-8.551099999999999923e+00 2.111799999999999855e+01 1.919600000000000151e+01 1.340803999999999974e+01 -2.824819668757843072e-01
-8.542299999999999116e+00 4.431499999999999773e+01 2.430399999999999849e+01 4.694399999999999906e+00 -2.563886131331959417e-01
-8.540100000000000691e+00 1.912900000000000134e+01 1.383600000000000030e+01 4.938233000000000317e+01 -3.155944356132432960e-01
-8.537100000000000577e+00 2.233999999999999986e+01 2.768100000000000094e+01 -5.518200000000000216e+00 -2.822226107883895052e-01
-8.537100000000000577e+00 2.340200000000000102e+01 2.768100000000000094e+01 -2.265505999999999887e+01 -2.809853217953738880e-01
-8.537100000000000577e+00 2.487399999999999878e+01 2.768100000000000094e+01 -4.087393999999999750e+00 -2.793220970535846837e-01
-8.529999999999999361e+00 2.164799999999999969e+01 2.430699999999999861e+01 -4.162478000000000122e+00 -2.828811325828047840e-01
-8.528999999999999915e+00 1.956099999999999994e+01 1.089499999999999957e+01 1.507946999999999926e+00 -3.139047064069906967e-01
-8.526400000000000645e+00 3.299300000000000210e+01 6.763499999999999623e+00 4.266261999999999832e-02 -2.756441747687385369e-01
-8.523400000000000531e+00 4.420199999999999818e+01 3.085399999999999920e+01 4.520677000000000056e+00 -4.609292083830394959e-02
-8.519999999999999574e+00 2.849099999999999966e+01 1.204199999999999982e+01 6.391924999999999635e+00 -2.770309106822246847e-01
-8.519999999999999574e+00 3.002700000000000102e+01 1.059500000000000064e+01 7.179453999999999780e+00 -2.764113686471073583e-01
-8.519999999999999574e+00 3.103399999999999892e+01 9.587999999999999190e+00 4.928353000000000428e+00 -2.760796809063500445e-01
-8.514699999999999491e+00 3.467799999999999727e+01 4.165300000000000225e+00 -6.791908000000000667e-02 -2.550649081692316633e-01
-8.514699999999999491e+00 3.619800000000000040e+01 4.165300000000000225e+00 -2.452271000000000090e+00 -2.553191006176019906e-01
-8.511100000000000776e+00 4.444700000000000273e+01 3.169999999999999929e+01 1.594555000000000078e+01 -4.643400112822674425e-02
-8.510999999999999233e+00 3.200800000000000267e+01 7.742300000000000182e+00 -6.555832999999999799e-02 -2.758719203735488512e-01
-8.509999999999999787e+00 2.883800000000000097e+01 3.099800000000000111e+01 7.040712000000000081e+00 -2.750687459378607369e-01
-8.509999999999999787e+00 3.002899999999999991e+01 3.166199999999999903e+01 -8.954204999999999526e-01 -2.740923671090381708e-01
-8.502000000000000668e+00 2.207199999999999918e+01 2.692200000000000060e+01 -7.962900999999999563e+00 -2.825552581425757603e-01
-8.495300000000000296e+00 3.464699999999999847e+01 3.457300000000000040e+01 7.883289999999999687e+00 -2.530430519470210360e-01
-8.489800000000000679e+00 3.406700000000000017e+01 2.134600000000000009e+01 -1.282802000000000042e+01 -2.532879038017544771e-01
-8.487999999999999545e+00 2.681500000000000128e+01 3.525699999999999790e+01 -3.385796000000000028e+00 -2.763574577410191080e-01
-8.486499999999999488e+00 4.405700000000000216e+01 2.844399999999999906e+01 -1.910454999999999970e+01 -2.563257857811139795e-01
-8.469200000000000728e+00 2.171999999999999886e+01 2.547400000000000020e+01 -5.970939000000000441e+00 -2.829155562094227694e-01
-8.465099999999999625e+00 4.249199999999999733e+01 3.207500000000000284e+01 1.352396000000000065e+01 -4.515242467118513181e-02
-8.464600000000000790e+00 1.961400000000000077e+01 1.467099999999999937e+01 1.724025999999999925e+01 -3.160091264821183188e-01
-8.457800000000000651e+00 2.176200000000000045e+01 2.024099999999999966e+01 1.841933999999999827e+01 -2.821526411893922059e-01
-8.445399999999999352e+00 4.156700000000000017e+01 3.210799999999999699e+01 1.767563000000000173e+01 -4.445781932225689737e-02
-8.440300000000000580e+00 4.407800000000000296e+01 3.254999999999999716e+01 7.298136999999999652e+00 -4.639379777322632376e-02
-8.430300000000000793e+00 4.024300000000000210e+01 3.490299999999999869e+01 6.646969999999999823e-01 -4.431283076532320508e-02
-8.426700000000000301e+00 3.310900000000000176e+01 2.517800000000000082e+01 -2.785374000000000017e+00 -2.524629823820510599e-01
-8.424899999999999167e+00 2.520799999999999841e+01 1.053299999999999947e+01 3.254544000000000104e+00 -3.127381195202695308e-01
-8.410299999999999443e+00 4.300699999999999790e+01 3.294500000000000028e+01 5.310876999999999626e+00 -4.575810067624374450e-02
-8.400800000000000267e+00 3.811299999999999955e+01 7.245000000000000107e+00 2.132460000000000022e+00 -2.555148368042271523e-01
-8.400299999999999656e+00 2.173999999999999844e+01 2.114199999999999946e+01 7.952516000000000140e+00 -2.823421941451436101e-01
-8.397999999999999687e+00 2.661499999999999844e+01 1.142699999999999960e+01 5.594845000000000290e+00 -2.779375189675546420e-01
-8.387100000000000222e+00 4.126400000000000290e+01 3.280799999999999983e+01 7.055378000000000149e+00 -4.441505330735412427e-02
-8.360699999999999577e+00 2.277599999999999980e+01 5.227699999999999569e+00 1.515290999999999944e+00 -3.113540088478315426e-01
-8.360699999999999577e+00 2.447599999999999909e+01 5.227699999999999569e+00 1.726947000000000010e+00 -3.111682238261325173e-01
-8.349999999999999645e+00 2.097700000000000031e+01 9.279899999999999594e+00 5.780550999999999995e+00 -3.129200342583732253e-01
-8.345100000000000406e+00 2.728900000000000148e+01 3.602499999999999858e+01 -3.911216000000000026e+00 -2.757977762838795810e-01
-8.340700000000000003e+00 3.521800000000000352e+01 2.459299999999999997e+01 -1.211233000000000004e+01 -2.535087057944249711e-01
-8.338599999999999568e+00 3.906499999999999773e+01 9.891799999999999926e+00 -9.340381000000000711e+00 -2.555947558227318339e-01
-8.337300000000000821e+00 4.128399999999999892e+01 3.386099999999999710e+01 -3.957113999999999798e+00 -4.475909581280217153e-02
-8.333399999999999253e+00 3.525500000000000256e+01 2.082999999999999829e+01 -2.243846999999999881e+01 -2.538328005840293500e-01
-8.330999999999999517e+00 2.854899999999999949e+01 3.688900000000000290e+01 2.217058999999999891e+00 -2.747267248003778528e-01
-8.327999999999999403e+00 2.413800000000000168e+01 2.768100000000000094e+01 -8.887207999999999330e+00 -2.801221168446401677e-01
-8.323000000000000398e+00 2.120899999999999963e+01 8.506600000000000605e+00 1.968512000000000128e+01 -3.125767451053517165e-01
-8.321899999999999409e+00 3.864000000000000057e+01 1.395700000000000074e+01 4.904916000000000054e+00 -2.553370715076636599e-01
-8.318300000000000693e+00 3.296900000000000119e+01 3.502300000000000324e+01 -1.076580000000000048e+01 -2.522465644939513307e-01
-8.317999999999999616e+00 2.997299999999999898e+01 3.435499999999999687e+01 4.015844999999999665e+00 -2.738182907021506907e-01
-8.317299999999999471e+00 3.839900000000000091e+01 1.316900000000000048e+01 4.064378999999999742e+00 -2.553178314980544261e-01
-8.315500000000000114e+00 2.668799999999999883e+01 3.176200000000000045e+01 7.082440000000000069e+00 -2.768369079192837812e-01
-8.315400000000000347e+00 2.535999999999999943e+01 3.258800000000000097e+01 1.442074999999999996e+01 -2.781040959758000475e-01
-8.312699999999999534e+00 3.815699999999999648e+01 1.238000000000000078e+01 4.549591000000000052e-01 -2.553009931785427122e-01
-8.311999999999999389e+00 2.200100000000000122e+01 2.349299999999999855e+01 9.938618999999999648e-01 -2.824475060351015476e-01
-8.310999999999999943e+00 3.699600000000000222e+01 3.531799999999999784e+01 1.625919000000000025e+01 -4.175829162237621600e-02
-8.310999999999999943e+00 3.831499999999999773e+01 3.605299999999999727e+01 5.920438999999999563e-01 -4.324734729755691509e-02
-8.308600000000000207e+00 3.621099999999999852e+01 2.408399999999999963e+01 -1.539919000000000082e+01 -2.539695801215592352e-01
-8.308099999999999596e+00 4.308200000000000074e+01 2.351999999999999957e+01 -4.930908999999999764e+00 -2.561712366129497154e-01
-8.297299999999999898e+00 3.638799999999999812e+01 2.158800000000000097e+01 -3.236012999999999806e+01 -2.542079781316951559e-01
-8.297000000000000597e+00 4.393200000000000216e+01 3.007400000000000162e+01 7.191450999999999816e+00 -4.578735823517767617e-02
-8.296099999999999142e+00 2.628399999999999892e+01 3.601599999999999824e+01 2.275737999999999928e-01 -2.766729292433993126e-01
-8.288100000000000023e+00 2.350100000000000122e+01 3.189699999999999847e+01 1.576836000000000126e+02 -2.803362150562042077e-01
-8.285199999999999676e+00 3.202199999999999847e+01 2.432000000000000028e+01 -1.500792999999999999e+01 -2.736559578630605172e-01
-8.278700000000000614e+00 2.698300000000000054e+01 3.664800000000000324e+01 -1.555902000000000118e-01 -2.759723404019974735e-01
-8.271000000000000796e+00 3.871399999999999864e+01 1.064899999999999913e+01 -3.942032999999999987e+01 -2.555051780658570415e-01
-8.260999999999999233e+00 2.601599999999999824e+01 3.525699999999999790e+01 4.509385000000000199e-01 -2.770112301688573142e-01
-8.260999999999999233e+00 2.761400000000000077e+01 3.525699999999999790e+01 -1.207794999999999952e+00 -2.755470773361343162e-01
-8.259000000000000341e+00 3.712400000000000233e+01 6.063500000000000334e+00 -8.487754000000000687e+00 -2.554110516533260600e-01
-8.252700000000000813e+00 4.383100000000000307e+01 2.925400000000000134e+01 -2.259529999999999816e+00 -2.563240038622399686e-01
-8.251300000000000523e+00 2.207600000000000051e+01 2.942299999999999827e+01 1.652917000000000058e+01 -2.824532579044887748e-01
