6.300800000000000267e+01 2.794500000000000206e+00 5.783699999999999619e+00 2.072804999999999964e+01 -2.504652873646296407e-01
6.302300000000000324e+01 8.322900000000000631e+00 -7.096799999999999997e+00 -6.851243000000000194e+00 3.100511136759952907e-02
6.303399999999999892e+01 -7.769000000000000128e+00 -8.859999999999999432e+00 2.010184999999999889e+01 -2.482558622938368376e-01
6.303399999999999892e+01 -7.769000000000000128e+00 -7.902000000000000135e+00 1.454207000000000072e+01 -2.482973142900283536e-01
6.303999999999999915e+01 -7.344999999999999751e+00 5.320899999999999963e+00 -4.522317000000000142e+00 -2.483684115011974003e-01
6.304200000000000159e+01 1.162200000000000039e-01 8.205399999999999139e+00 3.728343999999999880e+00 -2.508141244802606362e-01
6.304399999999999693e+01 1.662400000000000100e+00 5.855599999999999916e+00 1.102593000000000067e+01 -2.504172603442937906e-01
6.304800000000000182e+01 5.000700000000000145e+00 -4.832099999999999618e+00 2.654180999999999901e+00 3.072544567814674069e-02
6.305599999999999739e+01 2.865499999999999936e+00 -6.077600000000000335e+00 1.176617000000000068e+01 2.872537250935449163e-02
6.306300000000000239e+01 -1.045100000000000051e+01 3.862000000000000099e+00 9.885338000000000847e+00 -2.468359231257498121e-01
6.307399999999999807e+01 -6.514999999999999680e+00 -9.699500000000000455e+00 2.603834000000000160e+01 -2.482758701874104301e-01
6.307399999999999807e+01 -6.514999999999999680e+00 -7.062500000000000000e+00 9.292475000000000307e+01 -2.484019258653809570e-01
6.307699999999999818e+01 -3.627400000000000180e+00 -4.687899999999999956e+00 8.347754999999999370e+00 -2.487017591362140345e-01
6.310600000000000165e+01 5.022599999999999731e+00 -3.931400000000000006e+00 2.745928999999999731e-01 3.138101138144532010e-02
6.310999999999999943e+01 -8.531900000000000261e+00 4.591400000000000148e+00 -1.671455999999999875e+01 -2.477449751369230346e-01
6.311200000000000188e+01 -4.466300000000000381e+00 -2.862899999999999778e+00 6.901851999999999876e+00 -2.487833314538183682e-01
6.311299999999999955e+01 4.546499999999999986e+00 -9.870799999999999130e+00 1.184149000000000029e+01 2.790607633228576329e-02
6.311599999999999966e+01 3.053999999999999826e+00 8.156700000000000061e-01 1.457610999999999990e+01 3.376238384286776861e-02
6.313600000000000279e+01 8.022600000000000620e+00 -2.709499999999999797e+00 1.323339000000000043e+00 3.418961137775427400e-02
6.314300000000000068e+01 9.089299999999999713e+00 -3.723700000000000010e+00 -3.233186000000000115e-01 3.386815862819046730e-02
6.314500000000000313e+01 -1.866999999999999993e+00 -5.588599999999999568e+00 -3.835202000000000222e+00 2.599375288654461394e-02
6.314600000000000080e+01 3.079000000000000181e+00 -1.056000000000000050e+01 3.427656999999999954e+00 2.698554593689907882e-02
6.315100000000000335e+01 -6.983699999999999797e+00 5.774700000000000166e+00 -6.917937000000000225e+00 -2.485799019100376483e-01
6.316299999999999670e+01 -1.317399999999999949e+01 1.495000000000000107e+00 -6.161965999999999832e-01 -2.461474929089096653e-01
6.316299999999999670e+01 -1.317399999999999949e+01 3.015000000000000124e+00 -9.313705000000000567e+00 -2.458511761958433461e-01
6.317699999999999960e+01 -7.899899999999999700e+00 -8.032700000000000395e-01 4.858342999999999634e+00 -2.484979289036776673e-01
6.318999999999999773e+01 -5.753999999999999559e+00 6.597999999999999865e+00 -1.326552000000000042e+01 -2.494142355981880388e-01
6.319299999999999784e+01 -3.569000000000000124e-03 -3.208299999999999930e+00 1.609391000000000105e+01 2.830835982237499618e-02
6.319400000000000261e+01 1.620600000000000041e+00 -9.763299999999999201e+00 8.063783000000000811e+00 2.659625796006846385e-02
6.320000000000000284e+01 3.397100000000000120e-02 -1.331299999999999928e+00 1.189559999999999995e+01 -2.491890936069218743e-01
6.320700000000000074e+01 6.608999999999999986e+00 -8.223100000000000520e+00 -1.065441000000000038e+01 2.967677999119262139e-02
6.321000000000000085e+01 -8.206400000000000361e+00 4.062999999999999723e+00 -1.874333999999999945e+00 -2.480153580307866701e-01
6.321000000000000085e+01 -6.734300000000000175e+00 4.062999999999999723e+00 2.996468000000000131e+00 -2.488835311795774830e-01
6.322299999999999898e+01 -1.223499999999999943e+01 3.114100000000000090e+00 -1.462415999999999983e+01 -2.462109263213905774e-01
6.322599999999999909e+01 -1.350300000000000011e+01 2.254999999999999893e+00 -1.551174000000000053e+00 -2.458970483089476800e-01
6.323199999999999932e+01 -9.348000000000000753e+00 4.562000000000000277e+00 -1.705810999999999922e+01 -2.473138394034558041e-01
6.324199999999999733e+01 4.337600000000000122e+00 -6.104000000000000092e+00 9.795232000000000383e-01 2.968460488068649927e-02
6.324300000000000210e+01 7.960300000000000153e+00 -7.596499999999999808e+00 -2.062669999999999959e+01 3.065410218602054176e-02
6.324399999999999977e+01 1.397299999999999986e+00 -6.640000000000000346e-01 1.128799000000000063e+01 -2.493219550242232185e-01
6.324699999999999989e+01 1.414600000000000080e+00 -6.274099999999999788e+00 1.226331000000000060e+01 2.786804379060579123e-02
6.324900000000000233e+01 -7.206700000000000328e-01 -4.805500000000000327e+00 1.361639000000000088e+01 2.711079643473852246e-02
6.325000000000000000e+01 -7.043800000000000061e+00 4.836000000000000298e+00 -9.208539000000000030e+00 -2.486433730792977914e-01
6.326500000000000057e+01 3.569999999999999840e+00 5.719000000000000306e+00 4.104171000000000191e+01 -2.504366987655369248e-01
6.326500000000000057e+01 4.888499999999999623e+00 3.354099999999999859e+00 2.358125000000000071e+01 -2.499804376266557548e-01
6.326500000000000057e+01 4.888499999999999623e+00 4.983900000000000219e+00 1.017737000000000052e+02 -2.502853721742410165e-01
6.326500000000000057e+01 5.120000000000000107e+00 4.168999999999999595e+00 7.193443999999999505e+01 -2.501248799394247824e-01
6.326800000000000068e+01 -7.902999999999999581e+00 3.362999999999999989e+00 2.623489000000000004e+01 -2.482649281578634404e-01
6.327199999999999847e+01 -1.127200000000000024e+01 7.094599999999999795e-01 1.161575999999999986e+01 -2.469995102533206754e-01
6.327300000000000324e+01 -7.793299999999999672e-01 8.097799999999999443e+00 -2.059560999999999975e+00 -2.506064238694347690e-01
6.328300000000000125e+01 9.580700000000000216e+00 -4.365400000000000169e+00 -1.606044999999999945e+00 3.364183343138328619e-02
6.331799999999999784e+01 5.007299999999999862e+00 -1.451999999999999957e+00 -3.408561000000000263e+01 3.346561015579700010e-02
6.331799999999999784e+01 5.946699999999999875e+00 -1.451999999999999957e+00 -5.150778999999999996e+01 3.414478219910993539e-02
6.334000000000000341e+01 4.928399999999999892e+00 -9.528499999999999304e+00 1.184149000000000029e+01 2.833878243205881914e-02
6.335799999999999699e+01 -1.149200000000000088e+01 3.221699999999999786e+00 6.564420000000000144e+00 -2.465278765543354456e-01
6.336200000000000188e+01 -5.131199999999999761e+00 -1.919499999999999984e+00 4.784305999999999948e+00 -2.487961286831502083e-01
6.337100000000000222e+01 -4.512100000000000222e+00 6.123599999999999710e+00 -4.886092999999999797e+00 -2.496189407230853807e-01
6.338100000000000023e+01 4.677900000000000169e+00 -2.212000000000000188e+00 -1.230688999999999922e+01 3.262066887762399975e-02
6.338799999999999812e+01 -9.713300000000000267e+00 3.862000000000000099e+00 5.488175000000000026e+00 -2.472615696322498224e-01
6.338799999999999812e+01 -8.982699999999999463e+00 3.862000000000000099e+00 -4.692461999999999911e+00 -2.476424791698602357e-01
6.339500000000000313e+01 4.038700000000000068e-01 -6.863200000000000411e-01 1.397918999999999912e+01 -2.492686408521692931e-01
6.339600000000000080e+01 -7.517599999999999838e+00 3.027000000000000135e+00 2.290237000000000123e+01 -2.485208741609097882e-01
6.339600000000000080e+01 -6.652400000000000091e+00 3.027000000000000135e+00 2.457788000000000039e+01 -2.490025702406427066e-01
6.340800000000000125e+01 -1.000999999999999979e+01 1.269000000000000128e-01 1.285832000000000086e+01 -2.475880984625977166e-01
6.340899999999999892e+01 -7.020499999999999519e-01 -1.331299999999999928e+00 -1.307264999999999955e-01 -2.491412026363497012e-01
6.341100000000000136e+01 1.784399999999999986e+00 8.033500000000000363e-02 1.378467000000000020e+01 -2.494185434635767806e-01
6.341599999999999682e+01 1.060599999999999987e+00 4.168999999999999595e+00 1.647978000000000165e+01 -2.499988855134688548e-01
6.341599999999999682e+01 4.946100000000000385e+00 -2.970899999999999874e+00 -2.100422999999999973e+01 3.222952153650565643e-02
6.341700000000000159e+01 6.550000000000000266e-01 -7.911999999999999922e+00 9.777976999999999919e+00 2.686561831654714697e-02
6.341700000000000159e+01 9.088899999999999757e-01 -8.805699999999999861e+00 3.720632999999999857e+00 2.668293404587104151e-02
6.344100000000000250e+01 2.095000000000000195e+00 5.364700000000000024e+00 1.708883000000000152e+01 -2.502852491048037087e-01
6.344100000000000250e+01 3.579299999999999926e+00 1.665699999999999958e+00 4.449083999999999861e+01 -2.496845636761465259e-01
6.344200000000000017e+01 -4.524700000000000166e+00 -9.416999999999999815e+00 4.338880000000000337e+01 2.374103282663076603e-02
6.344200000000000017e+01 -4.524700000000000166e+00 -7.716999999999999638e+00 3.196800999999999959e+01 -2.484561405154887548e-01
6.344500000000000028e+01 -2.886699999999999822e-01 -3.919299999999999784e+00 6.682332999999999856e+01 2.793000386039998922e-02
6.344500000000000028e+01 -2.886699999999999822e-01 -2.868700000000000028e+00 1.732466000000000150e+01 -2.490064749996720450e-01
6.344599999999999795e+01 -2.100200000000000067e+00 7.311799999999999855e+00 -3.891058000000000128e+00 -2.501995426846134185e-01
6.344899999999999807e+01 -6.270100000000000229e+00 -1.012399999999999967e+00 8.548548000000000258e+00 -2.487639905915396132e-01
6.345000000000000284e+01 -6.134599999999999831e+00 3.786000000000000032e+00 1.692999999999999972e+01 -2.491360641992210745e-01
6.346699999999999875e+01 -3.986500000000000044e-01 -6.313199999999999923e-01 1.159675000000000011e+01 -2.492300072620659002e-01
6.347299999999999898e+01 -8.648899999999999366e+00 -6.706499999999999684e-01 1.183676999999999957e+01 -2.482124113629281814e-01
6.347699999999999676e+01 9.623800000000000132e-01 6.123000000000000220e+00 -4.584615999999999580e+00 -2.503589850349261514e-01
6.347699999999999676e+01 3.912399999999999878e+00 2.214999999999999858e+00 1.791084000000000032e+01 -2.497702646041578267e-01
6.349799999999999756e+01 -1.607599999999999918e+00 -5.009000000000000341e+00 -2.996608999999999856e+00 -2.487635614863735189e-01
6.350200000000000244e+01 8.459999999999999742e-01 -6.946699999999999875e+00 1.054193000000000069e+01 2.739418726141501503e-02
6.350800000000000267e+01 2.354999999999999982e+00 -6.108600000000000030e+00 1.144622999999999990e+01 2.867066841646942477e-02
6.350999999999999801e+01 5.908999999999999808e+00 -8.281399999999999650e+00 -5.221505999999999759e+00 2.947260370569515509e-02
6.350999999999999801e+01 7.444099999999999717e+00 -7.845299999999999940e+00 -1.977684999999999960e+01 3.041275694273630828e-02
6.351299999999999812e+01 -6.993999999999999773e+00 -9.156000000000000583e+00 7.178614000000000317e+01 -2.482710322005383663e-01
6.351299999999999812e+01 -6.993999999999999773e+00 -7.605999999999999872e+00 4.739376000000000033e+01 -2.483412609227857448e-01
6.351299999999999812e+01 -6.035999999999999588e+00 -7.605999999999999872e+00 4.167743999999999716e+01 -2.483893016360416151e-01
6.351299999999999812e+01 -4.156299999999999883e+00 -8.567000000000000171e+00 3.707410000000000139e+01 -2.484235245341385734e-01
6.351500000000000057e+01 2.229000000000000092e+00 -1.048900000000000077e+01 2.800066000000000166e+00 2.679963004510022007e-02
6.351500000000000057e+01 3.928999999999999826e+00 -1.048900000000000077e+01 1.426857999999999960e+00 2.757438841426022511e-02
6.352100000000000080e+01 -3.461199999999999832e+00 6.321200000000000152e+00 1.604547000000000168e+01 -2.498056197139168211e-01
6.353699999999999903e+01 -5.778900000000000148e-01 -2.075499999999999901e+00 1.149130999999999903e+00 -2.490657395477458846e-01
6.354200000000000159e+01 -2.341400000000000148e+00 -5.097699999999999676e+00 5.570409999999999862e+00 -2.487223948578561328e-01
6.355100000000000193e+01 8.958399999999999253e+00 -5.245599999999999596e+00 1.262283000000000044e+00 3.281541070478215250e-02
6.355599999999999739e+01 8.716799999999999216e+00 -6.034299999999999997e+00 -1.250860999999999912e+01 3.214386652799185173e-02
6.356900000000000261e+01 8.719999999999999973e-01 1.859999999999999987e-01 1.092850999999999928e+01 -2.493843800555196333e-01
6.357099999999999795e+01 -5.534500000000000419e+00 -9.453200000000000713e+00 5.004623999999999739e+00 -2.483200867344538543e-01
6.357500000000000284e+01 4.902699999999999836e-01 1.012899999999999912e+00 1.226229999999999976e+01 -2.494701988245864310e-01
6.357500000000000284e+01 -1.197199999999999953e+01 7.677500000000000435e-01 6.095482999999999763e+00 -2.467672205962513077e-01
6.357800000000000296e+01 -7.329900000000000304e+00 -8.381000000000000227e+00 6.071156000000000219e+00 -2.482879933881429191e-01
6.359499999999999886e+01 -1.247400000000000020e+01 1.227600000000000025e+00 1.985316999999999998e+00 -2.465143644306378445e-01
6.360000000000000142e+01 4.074200000000000044e-01 3.935999999999999943e+00 5.828064999999999607e+00 -2.498929578177998267e-01
6.360099999999999909e+01 8.511100000000000776e+00 -3.275300000000000100e+00 -5.076845999999999748e+00 3.421067314340865001e-02
6.360900000000000176e+01 2.269299999999999873e+00 7.146599999999999620e-01 8.100180999999999187e+00 -2.495050002885933205e-01
6.362100000000000222e+01 -6.223700000000000010e+00 4.544999999999999929e+00 -1.826457999999999915e+00 -2.491714877612811185e-01
6.362100000000000222e+01 -6.223700000000000010e+00 6.065000000000000391e+00 -8.622033000000000058e+00 -2.491618495156927293e-01
6.362500000000000000e+01 1.796599999999999975e+00 4.168999999999999595e+00 1.681116000000000099e+01 -2.500192986525401340e-01
6.363900000000000290e+01 3.904999999999999805e+00 -6.594999999999999751e+00 6.136478999999999573e+00 2.939548599107645252e-02
6.364999999999999858e+01 -6.059099999999999930e+00 -9.194200000000000372e+00 1.342622000000000071e+01 -2.483084231946217635e-01
6.367300000000000182e+01 -4.424999999999999822e+00 -3.201000000000000068e+00 5.579736999999999725e+00 -2.487409779909050545e-01
6.367300000000000182e+01 -4.171100000000000030e+00 -4.094699999999999562e+00 5.889884000000000341e+00 -2.486936577217485900e-01
6.367499999999999716e+01 5.037600000000000300e+00 -5.836700000000000443e+00 -2.919499000000000066e+01 3.047881234433862455e-02
6.368099999999999739e+01 -1.270400000000000063e+01 2.599200000000000177e+00 -5.304043000000000063e+00 -2.462046302966743316e-01
6.368099999999999739e+01 -7.084999999999999964e+00 -9.549999999999999600e-01 7.394489000000000090e+00 -2.486870414320654921e-01
6.368299999999999983e+01 6.279599999999999627e-01 4.868999999999999773e+00 9.849139999999999562e-01 -2.500613451168220980e-01
6.368299999999999983e+01 1.493200000000000083e+00 3.468999999999999861e+00 1.485163000000000011e+01 -2.498769833618730285e-01
6.368299999999999983e+01 1.493200000000000083e+00 4.868999999999999773e+00 6.007494000000000334e+00 -2.501227838637672951e-01
6.368399999999999750e+01 -6.553099999999999703e+00 5.304999999999999716e+00 -1.018768000000000029e+01 -2.489926978107439015e-01
6.369200000000000017e+01 7.122399999999999842e+00 -2.365600000000000147e+00 -6.079356999999999900e+00 3.429494740960223331e-02
6.369700000000000273e+01 -5.708899999999999864e+00 -8.381000000000000227e+00 1.837772000000000006e+01 -2.483620628574164102e-01
6.371600000000000108e+01 5.249299999999999855e+00 -5.105199999999999960e+00 -7.022327999999999903e+00 3.108179020511503410e-02
6.371600000000000108e+01 8.880699999999999150e+00 -4.097999999999999865e+00 2.896419000000000077e-02 3.375878858388870613e-02
6.371800000000000352e+01 -1.074699999999999989e+01 1.899700000000000000e-01 1.329838999999999949e+01 -2.473283715326818066e-01
6.371900000000000119e+01 5.466899999999999871e+00 -2.178199999999999914e+00 -1.262881999999999927e+01 3.341230531708559021e-02
6.372099999999999653e+01 -4.884000000000000341e+00 -1.401799999999999935e+00 1.251481000000000066e+01 -2.488388735391026396e-01
6.372399999999999665e+01 -2.551000000000000156e+00 6.582300000000000040e+00 1.633215999999999823e+01 -2.499664315739819342e-01
6.374399999999999977e+01 1.395000000000000018e+00 5.423000000000000043e+00 3.241457000000000033e+00 -2.502138508177156884e-01
6.374399999999999977e+01 2.794999999999999929e+00 5.423000000000000043e+00 1.175386000000000024e+02 -2.502874539959308309e-01
6.374399999999999977e+01 4.344999999999999751e+00 2.915000000000000036e+00 2.095865999999999829e+01 -2.498618290357848826e-01
6.374399999999999977e+01 4.344999999999999751e+00 5.423000000000000043e+00 8.026469000000000165e+01 -2.503162843009328342e-01
6.375200000000000244e+01 -1.283799999999999919e+01 1.928700000000000081e+00 -6.967366999999999866e-01 -2.462874285432659627e-01
6.375200000000000244e+01 -5.570100000000000051e+00 -1.070699999999999985e+00 1.485050999999999988e+01 -2.488065776322054279e-01
6.376700000000000301e+01 -5.049999999999999822e+00 -8.567000000000000171e+00 1.385998999999999981e+01 -2.483804362468774174e-01
6.377499999999999858e+01 5.389499999999999957e+00 -8.753199999999999648e+00 1.657171999999999912e+01 2.912352490271085531e-02
6.378399999999999892e+01 -2.457499999999999962e-01 1.012899999999999912e+00 4.402334999999999887e+00 -2.494125599855669395e-01
6.378399999999999892e+01 -2.457499999999999962e-01 3.703100000000000058e+00 1.016511000000000031e+01 -2.497850089927307893e-01
6.378499999999999659e+01 -1.014600000000000080e+01 3.371100000000000207e+00 6.132206999999999653e+01 -2.471907460289531622e-01
6.378499999999999659e+01 -8.550100000000000477e+00 3.371100000000000207e+00 2.317586999999999975e+01 -2.479927917381408997e-01
6.379200000000000159e+01 -7.084999999999999964e+00 2.536099999999999799e+00 2.333679000000000059e+01 -2.488320267890197501e-01
6.380899999999999750e+01 -6.514999999999999680e+00 -8.381000000000000227e+00 3.054919999999999902e+01 -2.483224421680083616e-01
6.384199999999999875e+01 5.764899999999999886e-02 1.712900000000000089e+00 1.588682999999999979e+01 -2.495172318121766930e-01
6.384199999999999875e+01 5.764899999999999886e-02 3.003099999999999881e+00 1.307512999999999970e+01 -2.496976382615236911e-01
6.384199999999999875e+01 9.229000000000000536e-01 1.712900000000000089e+00 1.552088999999999963e+01 -2.495672038572617490e-01
6.384199999999999875e+01 9.229000000000000536e-01 3.003099999999999881e+00 1.445964999999999989e+01 -2.497548326016050257e-01
6.385600000000000165e+01 -5.471200000000000507e-01 5.800000000000000294e-02 -3.435144000000000197e+00 -2.492760362762536930e-01
6.386500000000000199e+01 9.195000000000000284e+00 -4.751999999999999780e+00 1.567125000000000101e+00 3.345454880893040939e-02
6.386800000000000210e+01 -1.491999999999999993e+00 7.677699999999999747e+00 -1.012278000000000056e+01 -2.502992380970760489e-01
6.386800000000000210e+01 2.800000000000000058e-02 7.677699999999999747e+00 -2.089167000000000129e+01 -2.505233694000530975e-01
6.388799999999999812e+01 -4.496000000000000441e+00 -2.183300000000000018e+00 8.383611999999999398e+00 -2.488020222260911019e-01
6.389999999999999858e+01 -1.098700000000000010e+00 -1.763900000000000023e+00 -3.661429000000000045e+00 -2.490518427837321025e-01
6.389999999999999858e+01 -1.098700000000000010e+00 -8.987000000000000544e-01 -1.671971000000000096e+00 -2.491378535304943076e-01
6.390599999999999881e+01 8.044200000000000017e+00 -7.092900000000000205e+00 -4.434252000000000038e+01 3.131933302904492400e-02
6.392300000000000182e+01 -2.260699999999999932e-01 4.438500000000000334e+00 2.237033999999999967e+00 -2.498874450845890161e-01
6.392999999999999972e+01 -4.147999999999999687e+00 -1.401799999999999935e+00 1.534104999999999919e+01 -2.488856031152487103e-01
6.394100000000000250e+01 -9.406299999999999883e+00 -3.813300000000000023e-01 6.759590000000000209e+00 -2.479393452125451258e-01
6.394200000000000017e+01 1.504999999999999893e+00 -6.536699999999999733e+00 1.061722999999999928e+01 2.821028920923896940e-02
6.394200000000000017e+01 3.205000000000000071e+00 -6.536699999999999733e+00 3.368919000000000352e+01 2.919769632206375282e-02
6.394200000000000017e+01 4.605000000000000426e+00 -6.536699999999999733e+00 -8.921167999999999765e+00 2.997583225968015325e-02
6.394299999999999784e+01 -4.978799999999999670e+00 5.883099999999999774e+00 -1.897493000000000052e+01 -2.494559800978014275e-01
6.394299999999999784e+01 6.608999999999999986e+00 -8.013999999999999346e+00 -3.006185999999999936e+01 3.015092460781330572e-02
6.396600000000000108e+01 1.678700000000000081e+00 1.340999999999999970e+00 1.378505000000000003e+01 -2.495417912866240706e-01
6.396600000000000108e+01 1.678700000000000081e+00 3.040999999999999925e+00 3.066837999999999909e+01 -2.497895642585304388e-01
6.396600000000000108e+01 2.729299999999999837e+00 1.340999999999999970e+00 1.491009000000000029e+01 -2.495780024926522178e-01
6.397299999999999898e+01 -1.060100000000000042e+00 -4.396899999999999586e+00 2.043251000000000062e+01 -2.488186014957218806e-01
6.398199999999999932e+01 7.732600000000000584e-02 5.138499999999999623e+00 -4.709131000000000178e+00 -2.500244348100471581e-01
6.398400000000000176e+01 -1.200399999999999956e+01 2.657500000000000195e+00 3.080815999999999999e+00 -2.465213074516134084e-01
6.398799999999999955e+01 -5.316600000000000215e+00 -7.017700000000000049e-01 2.268150999999999939e+01 -2.488439048669784659e-01
6.398799999999999955e+01 -4.451399999999999579e+00 -7.017700000000000049e-01 4.325245000000000317e+01 -2.489153990261009919e-01
6.400900000000000034e+01 -5.815900000000000070e+00 5.304999999999999716e+00 -3.169813999999999865e+01 -2.492633759943528593e-01
6.402800000000000580e+01 -9.744899999999999674e-01 -2.508100000000000218e+00 2.786283000000000065e+00 -2.489822104629137167e-01
6.404000000000000625e+01 1.632900000000000018e+00 -1.000799999999999912e+01 6.194855999999999696e+00 2.694189892532097841e-02
6.404000000000000625e+01 3.079000000000000181e+00 -1.081400000000000006e+01 2.008178000000000019e+00 2.731887908429538742e-02
6.404000000000000625e+01 4.525100000000000122e+00 -1.000799999999999912e+01 5.375092000000000425e+00 2.828262822747392574e-02
6.404000000000000625e+01 4.823999999999999844e+00 3.689999999999999947e+00 4.563956999999999908e+01 -2.499610243669409260e-01
6.404000000000000625e+01 4.823999999999999844e+00 4.647999999999999687e+00 3.952024999999999721e+01 -2.501286935340197859e-01
6.404099999999999682e+01 -7.702599999999999447e-01 -3.394000000000000128e+00 1.077887999999999913e+01 -2.489122490230314677e-01
6.404699999999999704e+01 -9.298000000000000043e+00 3.114100000000000090e+00 2.234975999999999985e+01 -2.476793639593053431e-01
6.407999999999999829e+01 3.569999999999999840e+00 5.487499999999999822e+00 8.746881999999999380e+01 -2.502755389360298288e-01
6.409399999999999409e+01 -1.149200000000000088e+01 3.530200000000000005e-01 1.304334000000000060e+01 -2.470741178402619254e-01
6.409600000000000364e+01 -7.785000000000000142e+00 2.594399999999999817e+00 1.799972999999999956e+01 -2.484991912712855855e-01
6.409699999999999420e+01 1.275600000000000067e+00 -9.205099999999999838e+00 5.022274000000000349e+00 2.708204433279749399e-02
6.409699999999999420e+01 4.882399999999999629e+00 -9.205099999999999838e+00 3.870380000000000109e+01 2.882816608490464810e-02
6.411700000000000443e+01 -1.152999999999999936e+01 2.998200000000000198e+00 1.445096999999999987e+01 -2.466816797194913702e-01
6.412600000000000477e+01 7.915000000000000036e+00 -2.793699999999999850e+00 -1.868193999999999910e+00 3.459680871830951576e-02
6.412600000000000477e+01 3.126500000000000057e+00 2.121799999999999908e+00 1.333225000000000016e+01 -2.496866073991870771e-01
6.413299999999999557e+01 4.263199999999999767e-01 2.296699999999999964e+00 1.603325999999999851e+01 -2.495953025095454803e-01
6.414300000000000068e+01 1.307900000000000063e+00 2.217400000000000038e+00 1.550772000000000084e+01 -2.496323005199805878e-01
6.414499999999999602e+01 2.259399999999999853e+00 4.642800000000000260e+00 1.628337000000000145e+01 -2.500651195892055756e-01
6.415800000000000125e+01 4.977099999999999858e-01 6.917699999999999960e+00 -1.580117000000000083e+01 -2.503700442088960809e-01
6.416800000000000637e+01 -5.442700000000000315e+00 3.471699999999999786e+00 1.929408000000000101e+01 -2.491506070345978485e-01
6.417900000000000205e+01 3.611200000000000188e+00 2.798000000000000043e+00 2.177558000000000149e+01 -2.497938997188976773e-01
6.419700000000000273e+01 -7.319999999999999840e-01 7.740999999999999659e+00 -1.881266000000000105e+01 -2.503713639334657626e-01
6.419799999999999329e+01 -3.575000000000000178e+00 -4.576299999999999812e+00 6.991150000000000198e+00 -2.486758976518705921e-01
6.419799999999999329e+01 -1.875000000000000000e+00 -4.576299999999999812e+00 5.928593000000000224e+00 -2.487603483529234050e-01
6.420799999999999841e+01 -6.170700000000000074e+00 2.653399999999999981e+00 2.360979999999999990e+01 -2.489942471321791029e-01
6.421599999999999397e+01 -2.037900000000000045e+00 6.984399999999999942e+00 -8.746045999999999765e+00 -2.500397072917468488e-01
6.423000000000000398e+01 6.142199999999999882e+00 -2.697999999999999954e+00 -5.101764000000000188e+00 3.370218610272416454e-02
6.423699999999999477e+01 -7.895299999999999763e+00 -7.708199999999999497e-01 4.369354000000000404e+00 -2.486032283904909268e-01
6.424599999999999511e+01 -2.649000000000000021e+00 6.404399999999999871e+00 7.335125999999999813e+00 -2.498557266827502177e-01
6.425100000000000477e+01 9.016700000000000159e+00 -5.549000000000000377e+00 -6.081034999999999968e+00 3.295569817826009273e-02
6.425199999999999534e+01 2.658399999999999874e+00 2.693999999999999950e+00 2.065321000000000140e+01 -2.497475871930671665e-01
6.425700000000000500e+01 5.578199999999999825e-01 5.979000000000000092e+00 -8.814144000000000645e+00 -2.501803276433133827e-01
6.425799999999999557e+01 -1.014799999999999969e+01 -1.703300000000000092e-01 7.720894000000000368e+00 -2.476654106319364224e-01
6.426699999999999591e+01 9.796700000000000408e-01 -8.437300000000000466e+00 6.737735999999999947e+00 2.730202833999912509e-02
6.426699999999999591e+01 9.796700000000000408e-01 -7.386700000000000266e+00 9.638636999999999233e+00 2.771850571694957702e-02
6.427200000000000557e+01 -1.065299999999999914e+00 -4.117100000000000204e-01 -1.219963000000000086e+01 -2.491686196127220754e-01
6.427500000000000568e+01 -6.423499999999999766e-01 1.445599999999999996e+00 1.443127999999999922e+01 -2.494037677732208746e-01
6.427500000000000568e+01 -6.423499999999999766e-01 3.270399999999999974e+00 2.510207000000000122e+01 -2.496403168721474386e-01
6.427500000000000568e+01 -6.423499999999999766e-01 4.135699999999999932e+00 5.428484000000000087e+00 -2.497640161672911585e-01
6.428100000000000591e+01 8.710000000000000853e+00 -6.443299999999999805e+00 -1.893343000000000131e+01 3.220664832920011600e-02
6.428199999999999648e+01 -5.361699999999999910e+00 4.396200000000000330e+00 2.586427000000000032e+00 -2.492308359302438381e-01
6.429099999999999682e+01 2.204000000000000181e+00 2.190999999999999837e+00 1.654230000000000089e+01 -2.496541492252541128e-01
6.429900000000000659e+01 -4.709100000000000286e+00 -1.815100000000000047e-01 1.459604000000000035e+01 -2.489195764654008602e-01
6.430400000000000205e+01 -6.236900000000000333e+00 -7.296000000000000263e-01 1.285615999999999914e+01 -2.487488315699750707e-01
6.431100000000000705e+01 2.354999999999999982e+00 -6.465900000000000425e+00 1.628275999999999968e+01 2.894609298600801101e-02
6.433400000000000318e+01 5.780199999999999783e+00 -8.225099999999999412e+00 -2.161897000000000180e+00 2.984054279916010730e-02
6.434699999999999420e+01 -9.437200000000000033e-01 4.906200000000000006e-01 -2.310279999999999845e+01 -2.492680367778514205e-01
6.434999999999999432e+01 -9.997999999999999332e+00 3.172400000000000109e+00 3.396197999999999695e+01 -2.473798808479089339e-01
6.434999999999999432e+01 -8.368199999999999861e+00 2.709400000000000031e+00 2.402080000000000126e+01 -2.482263637756960684e-01
6.441299999999999670e+01 7.368999999999999773e+00 -7.723700000000000010e+00 -1.024761999999999951e+01 3.087565252438456698e-02
6.441400000000000148e+01 -6.226699999999999458e-01 4.871100000000000207e+00 -6.945276999999999923e+00 -2.498606179007640260e-01
6.441599999999999682e+01 8.822400000000000020e+00 -4.401399999999999757e+00 8.627076999999999884e+00 3.382741950172164780e-02
6.442100000000000648e+01 -3.751399999999999846e+00 -1.834400000000000031e+00 8.744628999999999763e+00 -2.488569619335562755e-01
6.442199999999999704e+01 5.327300000000000146e+00 -8.484999999999999432e+00 7.999318999999999846e+00 2.953633880008054227e-02
6.445099999999999341e+01 5.689700000000000202e+00 -3.643699999999999939e+00 1.856036000000000075e-01 3.277977830262733538e-02
6.447299999999999898e+01 5.538700000000000401e+00 -4.637100000000000222e+00 -6.755086000000000146e-01 3.197282371408233931e-02
6.449500000000000455e+01 7.065000000000000391e+00 -2.722900000000000098e+00 -4.001600999999999964e+00 3.437320833396905612e-02
6.449800000000000466e+01 8.171099999999999142e+00 -7.114300000000000068e+00 -4.396005000000000251e+01 3.163422327678465373e-02
6.450300000000000011e+01 3.673500000000000210e+00 -6.969500000000000028e+00 2.907582999999999984e+01 2.952765037309949131e-02
6.450799999999999557e+01 -3.973100000000000076e+00 -1.815100000000000047e-01 1.213143999999999956e+01 -2.489694188780531281e-01
6.451900000000000546e+01 3.091000000000000192e+00 3.394000000000000128e+00 5.294342000000000326e+01 -2.498416531770800419e-01
6.451900000000000546e+01 3.091000000000000192e+00 4.943999999999999950e+00 4.953647999999999740e+01 -2.501022550609141026e-01
6.451900000000000546e+01 4.049000000000000377e+00 3.394000000000000128e+00 1.745440000000000111e+02 -2.498594843515715147e-01
6.451900000000000546e+01 4.049000000000000377e+00 4.943999999999999950e+00 4.408442999999999756e+01 -2.501210019014960539e-01
6.452299999999999613e+01 -4.100299999999999834e+00 -3.726300000000000168e+00 5.447934000000000054e+00 -2.486926219220103040e-01
6.452299999999999613e+01 -4.100299999999999834e+00 -2.675699999999999967e+00 4.627659999999999663e+00 -2.487661381036184449e-01
6.452299999999999613e+01 -1.349699999999999900e+00 -2.675699999999999967e+00 3.253873000000000015e+00 -2.489255629434731776e-01
6.452599999999999625e+01 -3.656699999999999839e+00 -8.350100000000000300e-01 6.463004999999999889e+00 -2.489387644701010205e-01
6.453199999999999648e+01 8.472500000000000142e+00 -3.560000000000000053e+00 -6.517959000000000280e+00 3.441353191510711229e-02
6.455100000000000193e+01 -8.483100000000000307e+00 -5.523599999999999621e-01 7.804412000000000127e+00 -2.483901073641102963e-01
6.455400000000000205e+01 -2.416999999999999982e-01 2.354800000000000004e+00 2.013456000000000046e+01 -2.495222904505423056e-01
6.456499999999999773e+01 2.229000000000000092e+00 -1.048900000000000077e+01 4.669758999999999993e+00 2.729587180499984389e-02
6.456499999999999773e+01 3.928999999999999826e+00 -1.048900000000000077e+01 3.297933000000000003e+00 2.805709893994913148e-02
6.456699999999999307e+01 -2.725000000000000089e+00 -4.647100000000000009e+00 5.159263000000000154e+00 -2.487013630309545531e-01
6.456699999999999307e+01 -4.276500000000000412e+00 5.184900000000000064e-01 6.435635000000000439e+00 -2.489988079644544494e-01
6.457299999999999329e+01 -1.203599999999999959e+01 7.921200000000000463e-01 1.168926000000000087e+01 -2.468809908983098378e-01
6.457299999999999329e+01 -1.071700000000000053e+01 3.157000000000000028e+00 3.022216999999999842e+01 -2.470857316421947447e-01
6.457500000000000284e+01 -7.084999999999999964e+00 -7.011100000000000110e-01 1.040124999999999922e+01 -2.486647252098430072e-01
6.457500000000000284e+01 -7.084999999999999964e+00 2.191100000000000048e+00 1.758654999999999902e+01 -2.488347991171417362e-01
6.458400000000000318e+01 2.755100000000000104e+00 4.168999999999999595e+00 2.378866000000000014e+01 -2.499497610285102700e-01
6.458400000000000318e+01 4.384900000000000020e+00 4.168999999999999595e+00 2.097081999999999979e+01 -2.499810227577342059e-01
6.460299999999999443e+01 9.241699999999999804e+00 -5.006199999999999761e+00 -2.658313000000000059e+01 3.362234670281337434e-02
6.461100000000000421e+01 -1.237700000000000067e+01 1.595299999999999940e+00 2.502599000000000018e+00 -2.466461959136532767e-01
6.462699999999999534e+01 -1.210899999999999999e+01 2.487699999999999800e+00 7.350647999999999627e+00 -2.466119081614310815e-01
6.462800000000000011e+01 -1.201699999999999990e+00 7.208000000000000185e+00 -5.337327000000000155e+00 -2.501353411199506160e-01
6.462800000000000011e+01 -2.622900000000000231e-01 5.687999999999999723e+00 -2.004851999999999990e+01 -2.499981673845620700e-01
6.462800000000000011e+01 -2.622900000000000231e-01 7.208000000000000185e+00 -2.235077000000000069e+01 -2.502593479285071809e-01
6.463100000000000023e+01 -1.280699999999999950e+00 -3.761000000000000121e+00 6.102571000000000190e+00 -2.488338656292593820e-01
6.464000000000000057e+01 9.131700000000000372e+00 -5.957699999999999996e+00 -1.677590000000000003e+01 3.288405352863283532e-02
6.467400000000000659e+01 -5.682900000000000063e+00 1.867800000000000016e-01 1.268369000000000035e+01 -2.488413621023080891e-01
6.467900000000000205e+01 -3.349000000000000199e+00 6.136999999999999567e+00 1.569435999999999964e+01 -2.496598161573825581e-01
6.468300000000000693e+01 -2.128699999999999815e+00 -1.401999999999999913e+00 -2.624889000000000028e+00 -2.489855748081543363e-01
6.469100000000000250e+01 6.711100000000000398e-02 6.448000000000000398e+00 -1.729497999999999891e+01 -2.501510042447024906e-01
6.470300000000000296e+01 5.379299999999999748e+00 -6.024300000000000210e+00 -1.214386999999999972e+01 3.108322120368173930e-02
6.472499999999999432e+01 -5.366900000000000226e+00 9.470699999999999674e-01 1.163111999999999924e+01 -2.489227382360510998e-01
6.472499999999999432e+01 -4.501699999999999591e+00 9.470699999999999674e-01 1.065285000000000082e+01 -2.490044046898466090e-01
6.474200000000000443e+01 -1.825299999999999923e+00 -2.101999999999999869e+00 4.982075000000000031e+00 -2.489391802691844902e-01
6.474200000000000443e+01 -1.825299999999999923e+00 -7.019999999999999574e-01 -2.508437999999999946e+01 -2.490650530583666811e-01
6.474200000000000443e+01 6.608999999999999986e+00 -7.786999999999999922e+00 -6.944885000000000197e+00 3.064929875864957909e-02
6.475700000000000500e+01 6.083999999999999631e+00 -7.789100000000000357e+00 -7.788838000000000150e+00 3.041450943815521973e-02
6.476399999999999579e+01 -4.857999999999999652e+00 5.402300000000000324e+00 4.574792000000000414e+00 -2.493477095511740238e-01
6.478300000000000125e+01 -9.298000000000000043e+00 -4.949999999999999956e-01 5.231056999999999846e+00 -2.480831107349837639e-01
6.478300000000000125e+01 -9.298000000000000043e+00 2.904999999999999805e+00 2.783690999999999960e+01 -2.478091326218831159e-01
6.479200000000000159e+01 1.829700000000000104e+00 -7.062000000000000277e+00 1.358571000000000062e+01 2.861482582168021344e-02
6.479399999999999693e+01 -5.164699999999999847e+00 4.508000000000000007e+00 3.545958000000000165e+00 -2.492236716510476957e-01
6.479600000000000648e+01 -1.548100000000000032e+00 6.477400000000000269e+00 -1.514492000000000083e+01 -2.499473027678195403e-01
6.480700000000000216e+01 4.373499999999999943e+00 -6.911200000000000010e+00 9.218132000000000659e+00 3.008259458328031016e-02
6.481499999999999773e+01 3.569999999999999840e+00 4.168999999999999595e+00 7.094781000000000404e+01 -2.499440461757340692e-01
6.481900000000000261e+01 2.913199999999999790e+00 -6.918899999999999828e+00 2.325293999999999883e+01 2.929960530177423347e-02
6.481900000000000261e+01 1.676399999999999890e+00 -9.910700000000000287e+00 4.414352000000000054e+00 2.736781238235954511e-02
6.482399999999999807e+01 4.893900000000000361e+00 -8.714499999999999247e+00 3.018262999999999963e+01 2.940483997313009246e-02
6.482899999999999352e+01 -8.410499999999999643e-01 5.394999999999999574e+00 -8.451116000000000739e+00 -2.498653376266192494e-01
6.484000000000000341e+01 -2.825899999999999856e+00 -7.008799999999999475e-01 -1.384243999999999986e+01 -2.489928715228584832e-01
6.484999999999999432e+01 4.594800000000000217e+00 -9.670299999999999230e+00 1.200402000000000058e+01 2.882867390166530749e-02
6.485999999999999943e+01 5.015799999999999592e+00 -6.724999999999999645e+00 -1.510551000000000066e+01 3.054761731212848885e-02
6.487800000000000011e+01 -7.785000000000000142e+00 2.249400000000000066e+00 2.144225000000000136e+01 -2.486116719191848179e-01
6.487999999999999545e+01 -1.431200000000000028e+00 1.036100000000000042e-02 -2.529857000000000156e+01 -2.491507436073175374e-01
6.489300000000000068e+01 1.336899999999999977e+00 -7.911999999999999922e+00 1.616034000000000148e+01 2.802054908839919992e-02
6.490399999999999636e+01 -2.927200000000000024e+00 -1.486099999999999977e+00 2.406137000000000192e+00 -2.489161753074636274e-01
6.491800000000000637e+01 -7.319999999999999840e-01 6.448000000000000398e+00 -3.210144999999999982e+01 -2.500271752682040050e-01
6.492000000000000171e+01 -3.270799999999999930e+00 1.430599999999999927e-01 -1.213298999999999905e+00 -2.490289984313339422e-01
6.492300000000000182e+01 7.850999999999999979e+00 -7.312599999999999767e+00 -8.013726999999999379e+00 3.155957504346033893e-02
6.493000000000000682e+01 8.662000000000000810e+00 -6.717699999999999783e+00 -6.946333000000000091e+00 3.228856008493041774e-02
6.493099999999999739e+01 8.761100000000000776e+00 -4.198199999999999932e+00 -1.248976000000000042e+01 3.419844433250223553e-02
6.497400000000000375e+01 -9.636099999999999666e-01 1.261900000000000022e+00 1.095761000000000074e+01 -2.493068426257669667e-01
6.497400000000000375e+01 -9.636099999999999666e-01 3.656099999999999905e+00 1.007274999999999920e+01 -2.495944541271192807e-01
6.497400000000000375e+01 -6.596300000000000496e-01 1.896700000000000053e+00 2.228095000000000070e+01 -2.494003833428708461e-01
6.497499999999999432e+01 -7.006400000000000405e-01 2.967000000000000082e+00 1.941613999999999862e+01 -2.495279053632349364e-01
6.497599999999999909e+01 6.539699999999999847e+00 -3.318999999999999950e+00 -1.765293000000000001e+00 3.380303483806163661e-02
6.498199999999999932e+01 -5.303399999999999892e+00 3.227599999999999802e+00 1.993935000000000102e+01 -2.490868055724382302e-01
6.498199999999999932e+01 -5.094299999999999606e+00 3.963600000000000012e+00 7.253239999999999910e+00 -2.491715836405861695e-01
6.502100000000000080e+01 7.529899999999999594e+00 -3.349099999999999966e+00 7.409227000000000452e-01 3.434246287796573205e-02
6.503799999999999670e+01 -1.577099999999999946e+00 5.394999999999999574e+00 3.738859999999999850e+00 -2.497567058552827013e-01
6.503900000000000148e+01 -1.150700000000000056e+00 4.652300000000000324e+00 2.758071000000000161e+00 -2.497018100095217685e-01
6.504000000000000625e+01 -6.302599999999999980e+00 2.182199999999999918e+00 1.136356999999999928e+01 -2.488936761357666561e-01
6.504800000000000182e+01 -3.250300000000000189e+00 -4.051000000000000156e+00 4.087939999999999685e+00 -2.486977261324643251e-01
6.504800000000000182e+01 -3.250300000000000189e+00 -2.350999999999999979e+00 3.364300000000000068e+00 -2.488203780217007888e-01
6.504800000000000182e+01 -2.199699999999999989e+00 -4.051000000000000156e+00 2.993217000000000017e+00 -2.487511620423749625e-01
6.504800000000000182e+01 -2.199699999999999989e+00 -2.350999999999999979e+00 1.196119000000000021e+01 -2.488822900925720949e-01
6.505200000000000671e+01 -1.149200000000000088e+01 3.530200000000000005e-01 1.329688999999999943e+01 -2.471986496885014151e-01
6.505200000000000671e+01 -1.149200000000000088e+01 2.861000000000000210e+00 4.179661000000000115e+01 -2.468701465852799204e-01
6.505599999999999739e+01 -6.559700000000000308e+00 -1.049999999999999961e-01 8.432842000000000837e+00 -2.487237900679141467e-01
6.506000000000000227e+01 2.283100000000000129e+00 -1.035699999999999932e+01 3.188025000000000109e+00 2.759266307160414960e-02
6.506000000000000227e+01 3.984900000000000109e+00 -1.035699999999999932e+01 2.257490000000000219e+00 2.835239479807343671e-02
6.506199999999999761e+01 5.341999999999999638e+00 -7.252900000000000347e+00 1.738516999999999979e-01 3.050277476715575892e-02
6.507399999999999807e+01 -1.962599999999999900e+00 5.748000000000000220e+00 9.635681999999999192e+00 -2.497529790343210043e-01
6.510999999999999943e+01 6.099700000000000344e+00 -4.083499999999999908e+00 3.669570000000000221e+00 3.301365942927598357e-02
6.511700000000000443e+01 -9.950300000000000367e+00 2.960999999999999854e+00 1.838601999999999848e+01 -2.475426945486872143e-01
6.511899999999999977e+01 -3.618700000000000028e+00 -3.201000000000000068e+00 3.209395000000000220e+00 -2.487331790385181596e-01
6.511899999999999977e+01 -1.831299999999999928e+00 -3.201000000000000068e+00 8.367082999999999160e+00 -2.488306376165321798e-01
6.512099999999999511e+01 -4.934300000000000352e+00 1.437999999999999945e+00 1.009345000000000070e+01 -2.489773137318504193e-01
6.512699999999999534e+01 -6.191300000000000026e+00 7.449999999999999956e-01 1.221855000000000047e+01 -2.488067963637331792e-01
6.514100000000000534e+01 -7.550300000000000011e+00 -2.126000000000000112e-01 1.212489000000000061e+01 -2.486245315505737352e-01
6.515600000000000591e+01 -2.294999999999999929e+00 -9.567000000000000851e-03 -9.218994000000000355e+00 -2.490728932329713263e-01
6.518500000000000227e+01 -5.887900000000000134e+00 1.445000000000000062e+00 1.099310999999999972e+01 -2.488792354471758284e-01
6.520399999999999352e+01 -4.198999999999999844e+00 5.812299999999999578e+00 3.777222000000000079e+00 -2.494368534563416451e-01
6.521599999999999397e+01 5.825700000000000323e+00 -4.952700000000000102e+00 -1.350198000000000009e+00 3.227852231591565868e-02
6.522899999999999920e+01 -6.581400000000000361e+00 1.559900000000000064e+00 1.377594999999999992e+01 -2.488131521773717658e-01
6.523300000000000409e+01 7.078000000000000291e+00 -7.353100000000000414e+00 -1.262543999999999933e+01 3.133129222553120846e-02
6.523600000000000421e+01 5.809899999999999842e+00 -6.493999999999999773e+00 -1.819276999999999944e+01 3.126401937494088096e-02
6.523600000000000421e+01 3.909499999999999975e+00 -7.365300000000000402e+00 1.751409999999999911e+01 2.980167536645915091e-02
6.525199999999999534e+01 6.108999999999999986e+00 -7.302999999999999936e+00 -1.023564000000000007e+01 3.092729225578094016e-02
6.528799999999999670e+01 -2.543299999999999894e+00 5.920399999999999885e+00 2.011545999999999879e+01 -2.496719438949379644e-01
6.529900000000000659e+01 4.958400000000000141e+00 -8.032099999999999795e+00 6.368852000000000402e+00 2.999727502113146496e-02
6.530800000000000693e+01 -1.014799999999999969e+01 -1.703300000000000092e-01 7.514431000000000083e+00 -2.477859371828053658e-01
6.530800000000000693e+01 -8.448000000000000398e+00 2.580299999999999816e+00 3.295604000000000156e+01 -2.483158374150799264e-01
6.534799999999999898e+01 -1.197100000000000009e+01 1.127999999999999892e+00 1.307047999999999988e+01 -2.469667549256926442e-01
6.534799999999999898e+01 -1.197100000000000009e+01 2.085999999999999854e+00 1.114031999999999911e+01 -2.468367728238995973e-01
6.537300000000000466e+01 -2.725000000000000089e+00 -3.201000000000000068e+00 3.709674000000000138e+00 -2.487725180631537025e-01
6.538800000000000523e+01 -1.071700000000000053e+01 2.925499999999999989e+00 1.487472999999999956e+02 -2.472421962251814820e-01
6.540000000000000568e+01 9.195000000000000284e+00 -6.287099999999999689e+00 -1.168402999999999992e+01 3.299529527843456794e-02
6.540000000000000568e+01 9.195000000000000284e+00 -4.688900000000000290e+00 -4.548472000000000293e+01 3.419206977263979097e-02
6.540000000000000568e+01 9.422000000000000597e+00 -5.488000000000000433e+00 -1.474733999999999945e+01 3.366742849585536296e-02
6.540200000000000102e+01 -7.240999999999999659e+00 1.698099999999999943e+00 1.574042999999999992e+01 -2.487422824824097600e-01
6.540600000000000591e+01 -8.449899999999999523e+00 -2.696000000000000063e-01 3.110467999999999833e+01 -2.484761814065620522e-01
6.541200000000000614e+01 -5.484200000000000408e+00 2.114900000000000002e+00 1.605961999999999890e+01 -2.489525941371916462e-01
6.545399999999999352e+01 -1.077100000000000080e+01 2.153599999999999959e-01 3.619883000000000095e+01 -2.475318416794431153e-01
6.546200000000000330e+01 7.902000000000000135e+00 -7.105900000000000105e+00 -1.877658999999999878e+01 3.193885758195723346e-02
6.546200000000000330e+01 7.902000000000000135e+00 -3.870099999999999874e+00 -1.252945000000000064e+01 3.429146156607206647e-02
6.547199999999999420e+01 -1.424299999999999899e+00 4.177100000000000257e+00 6.794524000000000008e+00 -2.495643539904292274e-01
6.549200000000000443e+01 -7.010600000000000165e+00 7.258999999999999897e-01 1.521907999999999994e+01 -2.487074558421532022e-01
6.549299999999999500e+01 1.584000000000000075e+00 -8.980000000000000426e+00 3.376901999999999848e+00 2.799445231028703171e-02
6.549299999999999500e+01 1.815499999999999892e+00 -9.794900000000000162e+00 8.713711999999999236e+00 2.778335156184199434e-02
6.549299999999999500e+01 3.133999999999999897e+00 -1.052999999999999936e+01 5.728149000000000157e+00 2.809370246586912964e-02
6.549299999999999500e+01 4.452499999999999680e+00 -9.794900000000000162e+00 1.203313999999999950e+01 2.898638188792601600e-02
6.549299999999999500e+01 4.684000000000000163e+00 -8.980000000000000426e+00 2.642415000000000092e+01 2.947307788086325764e-02
6.550900000000000034e+01 6.325099999999999945e+00 -4.471700000000000230e+00 5.871682999999999986e+00 3.302985410890514617e-02
6.551200000000000045e+01 -1.622400000000000064e+00 6.111199999999999966e-01 -3.766213000000000033e+00 -2.491541903234639199e-01
6.552899999999999636e+01 -1.973700000000000010e+00 4.962299999999999933e+00 1.543220999999999954e+01 -2.495960841067276781e-01
6.556300000000000239e+01 3.133999999999999897e+00 -7.333199999999999719e+00 7.353408000000000300e+01 2.956809103654102142e-02
6.557299999999999329e+01 -3.349000000000000199e+00 5.883099999999999774e+00 8.069115999999999289e+00 -2.495225036318423351e-01
6.557500000000000284e+01 6.852599999999999802e+00 -3.795999999999999819e+00 -1.972974999999999923e+00 3.386385337752713387e-02
6.557699999999999818e+01 1.663000000000000034e+00 -8.271300000000000097e+00 2.043506000000000000e+01 2.836926935002826583e-02
6.559499999999999886e+01 -4.589699999999999669e+00 5.178099999999999703e+00 3.100903999999999883e+00 -2.492828583029320089e-01
6.564100000000000534e+01 -3.145000000000000018e+00 7.196200000000000374e-01 1.162623999999999924e+01 -2.490422976850702741e-01
6.564499999999999602e+01 -5.049199999999999910e+00 4.279200000000000337e+00 1.120937999999999946e+01 -2.491452573572154883e-01
6.566899999999999693e+01 -2.618700000000000028e+00 5.746200000000000196e-01 5.004731999999999736e+00 -2.490683327650793921e-01
6.566899999999999693e+01 6.275699999999999612e+00 -6.390299999999999869e+00 -8.717207000000000150e+00 3.174868051803415164e-02
6.567400000000000659e+01 -1.021900000000000031e+00 1.565299999999999914e+00 8.939109000000000194e+00 -2.492799400266710597e-01
6.567400000000000659e+01 -1.021900000000000031e+00 3.352700000000000014e+00 1.303903000000000034e+01 -2.494798304679060053e-01
6.567400000000000659e+01 -7.680000000000000160e-01 2.459000000000000075e+00 1.285454000000000008e+01 -2.493960380775533670e-01
6.567700000000000671e+01 -9.298000000000000043e+00 -2.411099999999999910e-01 2.156624000000000052e+01 -2.481603880351463398e-01
6.567700000000000671e+01 -9.298000000000000043e+00 2.651100000000000012e+00 2.511394999999999911e+01 -2.479515528297083493e-01
6.569100000000000250e+01 6.608999999999999986e+00 -6.838199999999999612e+00 -8.377964999999999662e+00 3.163144532792126068e-02
