-1.800000000000000044e+00 -1.419200000000000017e+01 1.500699999999999967e+01 1.878171000000000035e+00 -7.867201195742262732e-02
-1.798999999999999932e+00 2.571099999999999852e+01 1.558900000000000041e+01 3.094892000000000110e+01 2.150437809288363589e-02
-1.798999999999999932e+00 2.571099999999999852e+01 1.645499999999999829e+01 1.551641000000000048e+01 2.151540310602421263e-02
-1.795099999999999918e+00 -1.036800000000000033e+01 1.611499999999999844e+01 3.085560000000000080e+00 -1.883053491679714253e-01
-1.791299999999999892e+00 -6.568299999999999805e+00 3.279299999999999926e+01 2.799221000000000181e+00 -3.838620550419340367e-03
-1.791299999999999892e+00 -5.517699999999999605e+00 3.279299999999999926e+01 1.023719000000000001e+01 -6.398183394293208322e-03
-1.789700000000000069e+00 1.634799999999999898e+01 3.581900000000000261e+01 7.908199999999999896e+00 -4.028423303961845003e-02
-1.789700000000000069e+00 1.804799999999999827e+01 3.581900000000000261e+01 2.629082999999999970e+01 -3.999057159597706190e-02
-1.785800000000000054e+00 7.956199999999999939e+00 7.337699999999999889e+00 -2.094526000000000110e+01 1.651909974376776780e-01
-1.784699999999999953e+00 2.362399999999999878e+01 4.702899999999999636e+00 7.850340000000000096e-01 1.705685774532039456e-01
-1.782999999999999918e+00 1.108999999999999986e+01 -2.354699999999999793e+00 9.848122000000000043e+00 1.732962675766097638e-01
-1.782899999999999929e+00 4.289500000000000313e+00 3.189499999999999957e+01 -5.850910999999999973e+00 -2.999981093591724129e-02
-1.773600000000000065e+00 6.373000000000000220e+00 2.393199999999999861e+01 -5.563915999999999684e+01 1.810666956564659438e-02
-1.770399999999999974e+00 -1.058300000000000018e+01 2.642999999999999972e+01 -1.309943999999999953e+01 -2.711828776193602741e-01
-1.770100000000000007e+00 1.233500000000000085e+01 -3.251300000000000079e+00 1.577314000000000105e+00 1.736176791231552330e-01
-1.768699999999999939e+00 -1.664799999999999969e+01 1.888400000000000034e+01 1.254016000000000020e+00 -1.548910698547353026e-01
-1.768599999999999950e+00 3.181500000000000128e+01 1.119400000000000084e+01 -3.648711000000000038e+00 3.938764815978705591e-02
-1.768599999999999950e+00 1.375699999999999967e+01 1.840200000000000058e+00 -5.242954000000000292e+01 1.702619029678341667e-01
-1.760999999999999899e+00 3.120700000000000074e+01 2.766100000000000136e+01 3.250189000000000217e+00 5.166889170794384395e-02
-1.760599999999999943e+00 5.615199999999999747e+00 2.068799999999999883e+01 -5.764247000000000298e+01 1.448130567917812160e-02
-1.755400000000000071e+00 -2.339599999999999902e+00 3.265999999999999659e+01 9.155454000000000370e-02 -1.444080560278066493e-02
-1.754000000000000004e+00 1.825700000000000145e+01 -1.134500000000000064e+00 8.775275000000000603e+00 1.721853284254565020e-01
-1.753400000000000070e+00 2.862699999999999800e+00 1.193799999999999972e+00 1.838708999999999927e+00 1.989600474989667578e-01
-1.746699999999999919e+00 1.520000000000000018e+00 3.260000000000000142e+01 -2.036845999999999890e+01 -2.337037417664743905e-02
-1.746699999999999919e+00 3.040000000000000036e+00 3.260000000000000142e+01 -3.376650000000000063e+01 -2.636803516468352176e-02
-1.742499999999999938e+00 1.210299999999999976e+01 3.494599999999999795e+01 7.123634000000000022e+00 -4.203083408891661321e-02
-1.737300000000000066e+00 -8.803300000000000125e+00 1.049900000000000055e+01 6.957710999999999757e-01 -6.265288946136834958e-02
-1.737300000000000066e+00 -8.803300000000000125e+00 1.219899999999999984e+01 -9.691935000000000133e-02 -5.542520797282063372e-02
-1.733999999999999986e+00 2.596900000000000119e+01 3.254899999999999949e+01 -8.482708999999999833e+00 5.222294287370266019e-02
-1.731500000000000039e+00 1.923300000000000010e+00 2.010999999999999943e+01 -2.915562999999999860e+01 1.907170584720339554e-02
-1.727800000000000002e+00 3.515999999999999659e+01 2.142699999999999960e+01 -7.567101999999999862e+01 5.142728855367669633e-02
-1.708299999999999930e+00 5.639999999999999680e+00 3.254500000000000171e+01 8.725062999999999569e-01 -3.080017207078564190e-02
-1.702599999999999891e+00 -4.860999999999999870e-03 3.202799999999999869e+01 2.144965000000000011e+00 -2.102908523808188004e-02
-1.701400000000000023e+00 -9.360300000000000509e+00 1.519200000000000017e+01 2.739040999999999837e+00 -1.897066018392045694e-01
-1.699799999999999978e+00 1.356799999999999962e+01 3.402799999999999869e+01 1.059538000000000046e+01 -4.343686659800035516e-02
-1.699799999999999978e+00 1.443299999999999983e+01 3.402799999999999869e+01 -2.181055999999999884e+00 -4.328651395656476358e-02
-1.694600000000000106e+00 2.797800000000000065e+00 2.217399999999999949e+01 -3.285869999999999891e+01 1.994628409193323001e-02
-1.694499999999999895e+00 1.935699999999999932e+01 -1.643100000000000116e-01 6.831122999999999834e+00 1.718021087053680229e-01
-1.686600000000000099e+00 6.865999999999999659e+00 3.338199999999999790e+01 3.346729999999999983e+00 -3.081846231766368141e-02
-1.686299999999999910e+00 -4.660699999999999843e-01 1.163599999999999968e+00 7.427286999999999750e+00 1.214895030846518953e-01
-1.679999999999999938e+00 -7.133000000000000007e+00 8.973200000000000287e+00 4.640636999999999901e+00 -7.338487344662733558e-02
-1.679000000000000048e+00 -8.499900000000000233e+00 1.289899999999999913e+01 -7.344964999999999966e-01 2.273016329904494967e-02
-1.676900000000000057e+00 8.343500000000000583e+00 -7.896499999999999631e-01 6.171037000000000106e+00 1.728526820150426691e-01
-1.675999999999999934e+00 1.133799999999999919e+01 2.442099999999999937e+00 -1.919409999999999883e+01 1.697779237200034985e-01
-1.673300000000000010e+00 -7.309999999999999609e+00 3.536300000000000221e+00 -4.362029000000000045e-01 1.343102370215872865e-01
-1.671499999999999986e+00 7.282399999999999984e+00 3.455200000000000049e+00 -2.488823000000000008e+00 1.693473054573672310e-01
-1.671300000000000008e+00 2.841400000000000148e+01 1.678900000000000148e+01 1.067571000000000048e+01 2.309301152443180016e-02
-1.668600000000000083e+00 -5.782399999999999984e+00 3.388900000000000023e+00 -8.246862999999999388e+00 1.305305701854144185e-01
-1.663300000000000001e+00 -1.531600000000000072e+01 1.464400000000000013e+01 8.483992999999999673e-01 -8.116084862646444353e-02
-1.663300000000000001e+00 3.069999999999999951e-01 1.309900000000000064e+00 1.053428000000000075e+01 1.208657160995408181e-01
-1.659699999999999953e+00 1.615700000000000003e+01 2.439099999999999824e+00 -8.250104000000000326e+00 1.701111464317431876e-01
-1.657399999999999984e+00 2.551599999999999824e+01 4.591499999999999915e+00 -3.168888999999999734e-01 3.865782888485551350e-02
-1.653699999999999948e+00 3.033200000000000074e+01 2.976099999999999923e+01 8.315523000000000664e+00 5.214045491822910661e-02
-1.651899999999999924e+00 2.131599999999999895e+01 3.454099999999999682e+01 2.123154999999999859e+01 5.249690615666996463e-02
-1.643999999999999906e+00 1.377500000000000036e+01 6.412200000000000344e+00 1.194197999999999915e+01 1.671502097249779606e-01
-1.641499999999999959e+00 1.326399999999999935e+01 3.472800000000000153e+01 8.989848000000000283e-01 -4.237596348684951469e-02
-1.641499999999999959e+00 1.473600000000000065e+01 3.472800000000000153e+01 -5.917367999999999517e-01 -4.218325710762996228e-02
-1.641499999999999959e+00 -1.429300000000000015e+00 1.191400000000000015e+00 1.235782000000000025e+01 1.225053340837528870e-01
-1.640400000000000080e+00 1.072799999999999976e+01 7.459900000000000198e+00 2.883595000000000130e+00 1.655757545960680477e-01
-1.639599999999999946e+00 1.696699999999999875e+01 4.581100000000000172e+00 3.753068999999999988e-01 1.690540485737743459e-01
-1.639000000000000012e+00 3.075100000000000122e+01 8.834699999999999775e+00 7.505491000000000135e+00 3.949543441042836778e-02
-1.638800000000000034e+00 -6.512199999999999989e+00 1.233399999999999963e+01 4.090603999999999907e+00 2.046557080203532247e-02
-1.635499999999999954e+00 6.149799999999999933e+00 4.213499999999999801e+00 -2.530890000000000128e+01 1.688798829086936015e-01
-1.635299999999999976e+00 2.954700000000000060e+01 1.603099999999999881e+01 1.262303999999999959e+01 2.367983741181573995e-02
-1.632600000000000051e+00 3.222699999999999676e+01 1.178400000000000070e+01 -7.521303999999999768e+00 3.946270721016876398e-02
-1.627499999999999947e+00 -7.395699999999999719e+00 1.236299999999999955e+01 -6.157475999999999949e+00 2.091669523534735869e-02
-1.627499999999999947e+00 -7.395699999999999719e+00 1.376299999999999990e+01 3.378518000000000132e+00 -1.921823937238734126e-01
-1.627499999999999947e+00 -6.530400000000000205e+00 1.376299999999999990e+01 1.090972000000000008e+01 2.403004672900476563e-02
-1.625399999999999956e+00 2.700199999999999889e+01 3.162399999999999878e+01 1.638733999999999824e+01 5.203197589201154216e-02
-1.620300000000000074e+00 2.653999999999999915e+01 3.764299999999999979e+00 -4.922558000000000433e+00 3.959173658490053316e-02
-1.620300000000000074e+00 2.805999999999999872e+01 3.764299999999999979e+00 -3.144090999999999880e+01 4.025475063889481092e-02
-1.620000000000000107e+00 9.435000000000000497e+00 7.490000000000000213e+00 -6.853284999999999627e+00 1.652883171912364335e-01
-1.618000000000000105e+00 6.866699999999999804e+00 6.090399999999999980e-02 2.401113000000000053e+00 1.726620702525400730e-01
-1.614500000000000046e+00 2.234900000000000020e+01 3.467199999999999704e+01 9.901289999999999480e+00 5.268761167451557759e-02
-1.612700000000000022e+00 2.758599999999999852e+01 3.133699999999999974e+01 1.971446999999999861e+01 5.204689179062908094e-02
-1.610700000000000021e+00 2.069300000000000139e+01 6.908900000000000041e-01 1.033244000000000007e+01 1.715651879368299271e-01
-1.604300000000000059e+00 -3.669399999999999995e+00 2.019000000000000128e+00 5.499105000000000132e+00 1.258110253564163616e-01
-1.603299999999999947e+00 1.248600000000000065e+01 6.506099999999999994e+00 1.499526999999999965e+01 1.667542471049541786e-01
-1.602500000000000036e+00 2.183699999999999974e+01 4.772999999999999687e+00 1.107251000000000069e-01 1.701291665167548317e-01
-1.588700000000000001e+00 -1.170199999999999996e+01 2.588200000000000145e+01 5.651331000000000548e-01 -2.704565567624257483e-01
-1.583399999999999919e+00 -1.011299999999999955e+01 3.003300000000000125e+01 1.581172000000000022e+00 -2.706393651503836706e-01
-1.580500000000000016e+00 2.187300000000000111e+01 3.315599999999999881e+00 -6.390021999999999647e-01 1.706904371209251037e-01
-1.580500000000000016e+00 2.273799999999999955e+01 4.715600000000000236e+00 7.359082999999999597e-01 1.703623952769352246e-01
-1.579199999999999937e+00 2.950799999999999912e+01 1.494299999999999962e+01 4.790681000000000189e+00 2.369837708645877380e-02
-1.572300000000000031e+00 3.392099999999999937e+01 1.206000000000000050e+01 -4.878182999999999936e+01 4.023093476168575905e-02
-1.571099999999999941e+00 1.945400000000000018e+00 1.777899999999999991e+01 -7.432049000000000660e+01 1.716611572938227942e-02
-1.571099999999999941e+00 3.345400000000000151e+00 1.777899999999999991e+01 -3.232625999999999777e+01 1.442774698246998208e-02
-1.569199999999999928e+00 -7.699099999999999611e+00 1.306300000000000061e+01 -1.283978999999999981e+00 2.278011021782868489e-02
-1.569199999999999928e+00 -6.227000000000000313e+00 1.306300000000000061e+01 7.787732000000000099e+00 2.221862635967027100e-02
-1.566999999999999948e+00 2.206800000000000139e+01 1.611699999999999910e+00 2.647775999999999907e+00 1.713831771619301336e-01
-1.566999999999999948e+00 2.206800000000000139e+01 2.662300000000000111e+00 -1.291983000000000104e+00 1.709784853510079583e-01
-1.561199999999999921e+00 -1.242600000000000016e+01 1.672599999999999909e+01 1.675782999999999845e+01 -1.873983502821267300e-01
-1.561199999999999921e+00 -1.102599999999999980e+01 1.672599999999999909e+01 4.710703999999999780e+00 -1.878017304617370653e-01
-1.560899999999999954e+00 3.310499999999999687e+01 2.312699999999999889e+01 -3.846067000000000036e+01 5.102194937747097508e-02
-1.559199999999999919e+00 2.833699999999999974e+01 1.396100000000000030e+01 -1.135426999999999964e+01 2.315287291014559226e-02
-1.558899999999999952e+00 1.191399999999999970e+01 6.947099999999999831e+00 -1.327636000000000094e-01 1.662979027098433205e-01
-1.558599999999999985e+00 1.524099999999999966e+01 -3.670599999999999863e+00 9.001386000000000109e-01 1.734749791034651545e-01
-1.556200000000000028e+00 5.916000000000000369e+00 5.238000000000000433e+00 -1.876229000000000013e+01 1.678330444105609054e-01
-1.556200000000000028e+00 6.125099999999999767e+00 5.974000000000000199e+00 -1.644035999999999831e+01 1.669445852474615577e-01
-1.556200000000000028e+00 7.315999999999999837e+00 6.637999999999999901e+00 -9.690369000000000455e+00 1.660276109356347563e-01
-1.554000000000000048e+00 -1.023499999999999943e+01 3.084900000000000020e+01 3.272090000000000276e-01 -2.703952332278140025e-01
-1.554000000000000048e+00 -1.000799999999999912e+01 3.164799999999999969e+01 -5.386472999999999622e+00 -2.703416462381648122e-01
-1.554000000000000048e+00 -8.714999999999999858e+00 3.236899999999999977e+01 -1.963238000000000127e+01 -2.707908720378153222e-01
-1.553900000000000059e+00 7.080300000000000260e+00 3.601700000000000301e+01 5.668268000000000306e+00 -2.657851391707271443e-02
-1.545700000000000074e+00 2.679299999999999926e+01 1.434399999999999942e+01 2.672844999999999871e+01 2.228318583738195593e-02
-1.542899999999999938e+00 -3.645999999999999908e+00 3.216700000000000159e+01 1.079508000000000045e+01 -1.199140720599694773e-02
-1.531700000000000061e+00 2.614399999999999835e+01 1.488899999999999935e+01 2.554581999999999908e+01 2.188642454283145494e-02
-1.531700000000000061e+00 2.614399999999999835e+01 1.715500000000000114e+01 1.503489000000000075e+01 2.190847886283422280e-02
-1.531700000000000061e+00 2.754400000000000048e+01 1.715500000000000114e+01 1.449029999999999951e+01 2.268801978524787738e-02
-1.527199999999999891e+00 2.016399999999999970e+00 2.116700000000000159e+01 -2.806779999999999831e+01 2.043833479762077049e-02
-1.524899999999999922e+00 1.542900000000000027e+01 1.711999999999999966e+00 1.988493000000000066e+00 1.704640993919098457e-01
-1.522199999999999998e+00 2.156899999999999906e+01 4.015600000000000058e+00 -1.239273000000000025e+01 1.703578350750587500e-01
-1.516799999999999926e+00 3.250999999999999801e+01 2.394000000000000128e+01 -1.777411000000000030e+01 5.100596622586731771e-02
-1.516299999999999981e+00 8.951200000000000045e+00 2.090800000000000125e+01 -1.249939999999999998e+02 1.398975753419359237e-02
-1.516299999999999981e+00 -2.185999999999999943e+00 1.181899999999999951e+00 9.384404999999999220e+00 1.235050601918675772e-01
-1.508999999999999897e+00 3.425000000000000000e+01 1.282000000000000028e+01 -1.419889000000000046e+01 4.024531977616070677e-02
-1.506999999999999895e+00 7.174599999999999866e+00 3.436999999999999744e+01 3.025224000000000135e+00 -2.941133645338697006e-02
-1.506999999999999895e+00 7.174599999999999866e+00 3.523599999999999710e+01 8.373830999999999136e+00 -2.794200367363737156e-02
-1.506899999999999906e+00 8.342999999999999972e+00 2.870099999999999874e+00 4.259564000000000128e+00 1.697024047488949194e-01
-1.504999999999999893e+00 1.323000000000000043e+01 3.543900000000000006e+01 -5.369544999999999568e+00 -4.135360843027958977e-02
-1.504599999999999937e+00 1.821300000000000097e+01 -1.985000000000000098e+00 -2.273038000000000025e+01 1.725719362653304334e-01
-1.502999999999999892e+00 -1.015000000000000036e+01 2.712999999999999901e+01 -1.026863999999999999e+00 -2.713216325786085292e-01
-1.502999999999999892e+00 -1.015000000000000036e+01 2.799599999999999866e+01 2.164176000000000144e+01 -2.711044327025183276e-01
-1.502999999999999892e+00 -1.015000000000000036e+01 2.904599999999999937e+01 1.291413000000000011e+01 -2.708501839542928336e-01
-1.502799999999999914e+00 3.406499999999999773e+01 2.229599999999999937e+01 -2.403340999999999994e+01 5.119483747550558628e-02
-1.493700000000000028e+00 3.222999999999999687e+01 2.478300000000000125e+01 -4.553877000000000064e-01 5.113400822448405103e-02
-1.493700000000000028e+00 3.243900000000000006e+01 2.551899999999999835e+01 6.754466999999999999e+00 5.141659569240210337e-02
-1.493700000000000028e+00 3.243900000000000006e+01 2.660699999999999932e+01 -3.956129999999999924e+00 5.173403340026337671e-02
-1.488299999999999956e+00 7.781900000000000261e+00 2.245700000000000074e+01 -8.233225000000000193e+01 1.597366249601200189e-02
-1.485100000000000087e+00 1.723300000000000054e+01 -4.519999999999999574e+00 -1.799648000000000081e-01 1.737400085462488808e-01
-1.476199999999999957e+00 8.798500000000000654e+00 2.233200000000000074e+01 -9.314529000000000281e+01 1.560930798580742809e-02
-1.471999999999999975e+00 -9.532000000000000028e+00 6.461000000000000298e+00 -2.593909000000000020e+00 1.403920483982983858e-01
-1.471999999999999975e+00 -9.300499999999999545e+00 5.646099999999999675e+00 4.338151000000000090e-01 1.398809064999697038e-01
-1.471999999999999975e+00 -9.300499999999999545e+00 7.275900000000000034e+00 -1.735681000000000029e-01 1.391322854150073562e-01
-1.471300000000000052e+00 1.964000000000000057e+01 3.490500000000000114e+01 -7.626454999999999984e+00 -4.092188140537298541e-02
-1.469600000000000017e+00 -8.476599999999999469e+00 8.205399999999999139e+00 5.682292999999999594e+00 1.363143183515080903e-01
-1.463700000000000001e+00 2.946900000000000119e+01 3.071600000000000108e+01 1.589797000000000082e+01 5.226668964480492285e-02
-1.462099999999999955e+00 2.358399999999999963e+01 3.403399999999999892e+01 1.034886999999999944e+02 5.251903532646355621e-02
-1.458099999999999952e+00 1.573000000000000043e+01 3.550000000000000000e+01 1.639248000000000038e+00 -4.101954368098955500e-02
-1.457999999999999963e+00 9.254599999999999937e+00 2.160800000000000054e+01 -1.159624000000000024e+02 1.481208275504894076e-02
-1.453899999999999970e+00 -1.301900000000000013e+01 2.399399999999999977e+01 1.259023999999999965e+01 -2.696660395133371191e-01
-1.445999999999999952e+00 1.846300000000000097e+01 -3.696699999999999875e+00 -5.224548000000000414e+00 1.733379646379655525e-01
-1.445999999999999952e+00 1.846300000000000097e+01 -2.757299999999999862e+00 -1.778197000000000116e+01 1.729246421770443132e-01
-1.443799999999999972e+00 -8.522500000000000853e+00 9.984500000000000597e+00 1.503513000000000099e+00 -6.543027865788748898e-02
-1.439000000000000057e+00 7.449900000000000411e+00 3.698199999999999932e+01 9.048711000000000837e+00 -2.559656196629775393e-02
-1.439000000000000057e+00 8.896000000000000796e+00 3.778799999999999670e+01 2.381269999999999953e+01 -2.597794333974712960e-02
-1.439000000000000057e+00 1.034200000000000053e+01 3.698199999999999932e+01 2.137170000000000059e+01 -3.892922624288787381e-02
-1.436500000000000110e+00 1.257100000000000106e+00 1.907199999999999918e+01 -2.715518000000000143e+01 2.015833643190610008e-02
-1.436099999999999932e+00 7.780400000000000205e+00 2.095599999999999952e+01 -9.930115999999999588e+01 1.433543892395372152e-02
-1.433100000000000041e+00 3.691600000000000215e+00 2.339499999999999957e+01 -2.664817999999999998e+01 2.052206887839328961e-02
-1.433100000000000041e+00 4.882500000000000284e+00 2.405900000000000105e+01 -3.941158999999999679e+01 1.996520896213052620e-02
-1.432399999999999896e+00 1.400000000000000000e+01 3.472800000000000153e+01 1.099131000000000080e+00 -4.242146486964324531e-02
-1.431000000000000050e+00 3.178999999999999915e+01 1.310999999999999943e+01 -1.705772000000000066e+00 2.495350122462972400e-02
-1.428399999999999892e+00 -1.339499999999999957e+01 1.562400000000000055e+01 6.844375999999999571e+00 -1.882278884346015313e-01
-1.421300000000000008e+00 1.719800000000000040e+01 3.589000000000000057e+01 1.099385999999999974e+01 -4.027702882570304010e-02
-1.417000000000000037e+00 -1.738299999999999912e+01 1.660800000000000054e+01 5.779178999999999844e-01 -1.580926273770189294e-01
-1.415599999999999969e+00 3.428499999999999659e+01 1.427899999999999991e+01 -5.804511999999999894e+00 4.003417319278047143e-02
-1.410500000000000087e+00 1.253599999999999959e+01 3.554200000000000159e+01 -4.985095999999999972e-01 -4.128725920916079262e-02
-1.408099999999999907e+00 1.058000000000000007e+01 2.522299999999999986e+00 2.846079999999999899e+01 1.697562476793993969e-01
-1.406400000000000095e+00 2.579299999999999926e+01 3.317000000000000171e+01 -5.348842999999999570e+00 5.247644684261083825e-02
-1.394700000000000051e+00 6.870899999999999785e+00 2.112000000000000099e+01 -8.216640999999999906e+01 1.492612236222907660e-02
-1.393100000000000005e+00 3.265299999999999869e+01 1.282000000000000028e+01 -8.514608000000000843e+00 3.946953171768419200e-02
-1.392900000000000027e+00 3.387299999999999756e+01 1.347400000000000020e+01 -2.796929000000000087e+01 3.995697398405716194e-02
-1.388099999999999890e+00 2.319099999999999895e+01 4.211999999999999744e+00 8.027661000000000380e-01 1.706415084939809368e-01
-1.384400000000000075e+00 1.867399999999999949e+01 3.546200000000000330e+01 6.864326000000000150e+00 -4.053623746905887087e-02
-1.383000000000000007e+00 -1.623799999999999955e+01 2.182000000000000028e+01 3.213487999999999900e+00 -1.680299730662307978e-01
-1.383000000000000007e+00 -1.598399999999999999e+01 1.945400000000000063e+01 7.961519000000000013e+00 -1.856304328706817885e-01
-1.383000000000000007e+00 -1.598399999999999999e+01 2.092599999999999838e+01 8.732834999999999681e+00 -1.678433823791431190e-01
-1.383000000000000007e+00 -1.598399999999999999e+01 2.271399999999999864e+01 6.265493000000000201e+00 -1.678758707906619074e-01
-1.383000000000000007e+00 -1.577500000000000036e+01 2.019000000000000128e+01 7.301867999999999803e+00 -1.853843964784659959e-01
-1.383000000000000007e+00 -1.453800000000000026e+01 2.351999999999999957e+01 1.111402999999999963e+01 -2.684827642748176535e-01
-1.382600000000000051e+00 1.404599999999999937e+01 3.546800000000000352e+01 -6.742500999999999856e+00 -4.132376270952864417e-02
-1.371399999999999952e+00 1.152999999999999936e+01 3.549799999999999756e+01 8.716445999999999472e+00 -4.138734396524496040e-02
-1.368100000000000094e+00 6.582399999999999807e+00 3.513500000000000068e+00 -2.239313999999999893e+01 1.695135651694675005e-01
-1.368000000000000105e+00 1.559200000000000053e+01 5.600100000000000300e+00 -4.468134000000000050e+00 1.681824784914887350e-01
-1.367899999999999894e+00 2.911400000000000077e+01 1.673100000000000165e+01 9.676303000000000765e+00 2.354744889035952429e-02
-1.366999999999999993e+00 -9.202299999999999258e+00 1.274300000000000033e+01 7.612649999999999695e-01 -5.273165225290560310e-02
-1.362500000000000044e+00 -9.877399999999999736e+00 1.571799999999999997e+01 2.943026999999999838e+00 -1.892876688115948114e-01
-1.360600000000000032e+00 2.286700000000000177e+00 1.225899999999999990e+00 2.611688000000000009e+00 2.012675647964075887e-01
-1.360100000000000087e+00 -6.963099999999999845e+00 1.306300000000000061e+01 -3.755567999999999795e+00 2.245364339930539660e-02
-1.354000000000000092e+00 2.481599999999999895e+01 4.649799999999999933e+00 1.248193000000000108e+00 1.708556585303414310e-01
-1.353099999999999969e+00 8.656200000000000117e+00 7.605100000000000193e+00 -1.278786000000000023e+01 1.652011558683041670e-01
-1.352700000000000014e+00 -8.323600000000000776e+00 9.062799999999999301e+00 2.574571000000000165e+00 -6.967902847357219931e-02
-1.343800000000000106e+00 1.633800000000000097e+01 -4.353299999999999947e+00 -1.706096000000000057e+00 1.737033605764118083e-01
-1.342899999999999983e+00 -1.572000000000000064e+00 3.248299999999999699e+01 -1.119772000000000034e+01 -1.689405018511492759e-02
-1.340999999999999970e+00 5.673000000000000043e+00 2.419900000000000162e+01 -4.585600999999999772e+01 1.953389879140669111e-02
-1.340999999999999970e+00 6.863900000000000112e+00 2.353500000000000014e+01 -6.057276999999999845e+01 1.789622717842618421e-02
-1.340600000000000014e+00 1.307499999999999929e+01 6.353900000000000325e+00 1.124395999999999951e+01 1.670736482777035736e-01
-1.340600000000000014e+00 1.447499999999999964e+01 6.353900000000000325e+00 2.078447999999999851e+00 1.674427811556738754e-01
-1.336000000000000076e+00 3.132400000000000162e+01 1.079700000000000060e+01 -5.897516999999999676e+00 3.923247142091511319e-02
-1.336000000000000076e+00 1.326600000000000001e+01 2.236800000000000122e+00 -2.586076999999999870e+01 1.699807979918205592e-01
-1.332999999999999963e+00 9.159000000000000696e+00 -1.110000000000000098e+00 4.432288999999999923e+00 1.728218836977586936e-01
-1.330000000000000071e+00 2.853000000000000114e+01 4.524300000000000210e+00 -3.107279000000000124e+01 4.009661523406453376e-02
-1.322999999999999954e+00 4.774000000000000021e+00 2.059999999999999887e-01 1.337976000000000054e+00 1.734295874781705271e-01
-1.317700000000000093e+00 1.157799999999999940e+01 -2.920500000000000096e+00 4.660701999999999678e+00 1.734951238290046716e-01
-1.316400000000000015e+00 -8.886300000000000310e+00 1.350399999999999956e+01 3.265296999999999783e-01 -1.921374966385246963e-01
-1.314999999999999947e+00 -8.486100000000000421e+00 4.684300000000000352e+00 9.902729000000000392e-02 1.374985088991259596e-01
-1.313099999999999934e+00 2.230499999999999972e+01 4.015600000000000058e+00 -8.735233000000000025e-01 1.705209770731605512e-01
-1.310999999999999943e+00 -1.746499999999999986e+01 1.790099999999999980e+01 -6.819475999999999663e-03 -1.569062386374758256e-01
-1.309700000000000086e+00 -6.043000000000000149e+00 3.338900000000000290e+01 5.295245999999999675e+00 -5.410259319766327728e-03
-1.309299999999999908e+00 2.828600000000000136e+01 3.127899999999999991e+01 1.272348000000000035e+01 5.219427678806123211e-02
-1.304799999999999960e+00 1.308799999999999919e+01 -3.538800000000000168e+00 9.035663000000000444e-01 1.736096888881887568e-01
-1.301900000000000057e+00 -7.476399999999999935e+00 3.263300000000000267e+01 -7.447009999999999685e+00 -2.520815119171801368e-03
-1.301399999999999890e+00 2.646000000000000085e+01 3.215200000000000102e+01 9.255164000000000168e-01 5.214671637793601849e-02
-1.295500000000000096e+00 1.628500000000000014e+01 5.288199999999999790e+00 -1.819574999999999942e+00 1.685413083776145515e-01
-1.291400000000000103e+00 -8.926500000000000767e+00 1.440900000000000070e+01 1.683496000000000103e+00 -1.910740903475540431e-01
-1.290899999999999936e+00 1.125799999999999912e+01 3.625699999999999790e+01 1.012348000000000070e+01 -4.023459141526083971e-02
-1.290899999999999936e+00 2.730000000000000071e+01 3.701000000000000068e+00 -8.149537000000000031e-01 3.995586933393664025e-02
-1.283600000000000074e+00 3.543200000000000216e+01 2.059799999999999898e+01 -3.401680999999999955e+01 5.138440410027782235e-02
-1.282000000000000028e+00 3.345100000000000051e+01 1.282000000000000028e+01 -2.627334000000000103e+01 3.986307663332504247e-02
-1.276999999999999913e+00 9.300199999999999578e-01 3.226299999999999812e+01 -1.074947000000000052e+01 -2.294727252618739000e-02
-1.276999999999999913e+00 2.279999999999999805e+00 3.289000000000000057e+01 -1.965913000000000110e+01 -2.457126120893224352e-02
-1.276999999999999913e+00 3.629999999999999893e+00 3.226299999999999812e+01 -2.963511000000000095e+01 -2.820744286323028510e-02
-1.276999999999999913e+00 5.030000000000000249e+00 3.226299999999999812e+01 -2.438753000000000171e+00 -3.050177366006161933e-02
-1.273200000000000109e+00 -1.621600000000000108e+01 1.471899999999999942e+01 5.864977999999999581e-01 -8.251108812676517801e-02
-1.273200000000000109e+00 -1.441600000000000037e+01 1.471899999999999942e+01 5.877826999999999913e-01 -8.000089253255911192e-02
-1.268000000000000016e+00 3.110300000000000153e+01 1.002100000000000080e+01 1.392905999999999977e+00 3.932439626992238757e-02
-1.262000000000000011e+00 2.306900000000000173e+00 2.177700000000000102e+01 -3.031600999999999857e+01 2.101142893329334058e-02
-1.262000000000000011e+00 3.314099999999999824e+00 2.278399999999999892e+01 -3.404558999999999713e+01 2.055244415535877750e-02
-1.258499999999999952e+00 1.494599999999999973e+01 3.549000000000000199e+01 -1.192819999999999991e+00 -4.126595195531334442e-02
-1.256399999999999961e+00 6.027899999999999814e+00 2.085200000000000031e+01 -6.825167999999999324e+01 1.536517896674616246e-02
-1.256399999999999961e+00 7.218799999999999883e+00 2.151599999999999824e+01 -8.037242000000000530e+01 1.546758219823992329e-02
-1.256399999999999961e+00 7.218799999999999883e+00 2.298900000000000077e+01 -6.643317000000000405e+01 1.717810680984001651e-02
-1.255800000000000027e+00 2.903699999999999903e+01 1.401900000000000013e+01 -7.407790000000000319e+00 2.360779195146027118e-02
-1.254899999999999904e+00 2.865099999999999980e+01 5.426599999999999646e+00 -4.891819999999999879e+01 3.975015587323880301e-02
-1.254000000000000004e+00 6.375099999999999767e+00 3.298599999999999710e+01 -3.271278000000000130e+00 -3.098231359006122648e-02
-1.249700000000000033e+00 1.145500000000000007e+01 7.419800000000000395e+00 1.179141999999999912e+00 1.659336436444889262e-01
-1.249100000000000099e+00 1.446799999999999997e+01 -3.711100000000000065e+00 1.138233999999999968e+00 1.735334982588157271e-01
-1.247999999999999998e+00 2.947400000000000020e+01 6.644700000000000273e+00 -2.058403999999999900e+00 3.963612674304464040e-02
-1.244199999999999973e+00 1.059099999999999930e+01 -1.927499999999999991e+00 3.103108999999999895e+00 1.730522889758611127e-01
-1.242499999999999938e+00 5.035999999999999588e+00 2.014900000000000091e+01 -5.018064999999999998e+01 1.541913165655768060e-02
-1.242299999999999960e+00 2.154299999999999926e+01 7.616699999999999582e-01 1.702400000000000091e+01 1.716368692696055853e-01
-1.242099999999999982e+00 -6.490899999999999892e+00 3.367300000000000182e+00 -5.038185000000000358e+00 1.321343971745138346e-01
-1.227100000000000080e+00 1.664799999999999969e+01 2.835700000000000109e+00 4.303821000000000119e+00 1.699732411941791421e-01
-1.227100000000000080e+00 1.685699999999999932e+01 3.571699999999999875e+00 6.463116000000000305e+00 1.696066449002607002e-01
-1.226499999999999924e+00 -9.397499999999999742e-01 3.232699999999999818e+01 -8.420071999999999335e+00 -1.869437872401159828e-02
-1.221899999999999986e+00 3.105399999999999849e+01 1.310999999999999943e+01 3.308394000000000057e-01 2.466921318867102558e-02
-1.214699999999999891e+00 1.275999999999999979e+01 3.619899999999999807e+01 -3.544416000000000011e+00 -4.041375849862225561e-02
-1.214699999999999891e+00 1.369999999999999929e+01 3.619899999999999807e+01 -9.171277999999999153e+00 -4.038627975788607050e-02
-1.213100000000000067e+00 4.729300000000000281e+00 1.925499999999999901e+01 -4.114721000000000117e+01 1.484996919630207982e-02
-1.211999999999999966e+00 -9.653299999999999770e+00 1.082399999999999984e+01 4.606268000000000029e+00 -5.902360158614132490e-02
-1.211999999999999966e+00 -9.653299999999999770e+00 1.187400000000000055e+01 3.142733999999999916e+00 -5.498566492634269359e-02
-1.209000000000000075e+00 3.436999999999999744e+01 2.167099999999999937e+01 -3.407012000000000285e+01 5.118499276201345094e-02
-1.207200000000000051e+00 -5.032000000000000028e+00 3.104999999999999982e+00 4.441780999999999757e+00 1.289166408394321339e-01
-1.205999999999999961e+00 3.185999999999999943e+01 2.731700000000000017e+01 1.631829000000000107e+01 5.176870516223710389e-02
-1.203500000000000014e+00 7.642999999999999794e+00 2.928399999999999892e+00 -3.906200999999999812e+00 1.698167975015700271e-01
-1.199999999999999956e+00 -9.639999999999999680e-01 1.710099999999999953e+00 1.253172999999999959e+01 1.224767012613149353e-01
-1.199999999999999956e+00 3.152700000000000102e+01 1.151699999999999946e+01 -1.107565999999999917e+01 3.916502363319222801e-02
-1.199400000000000022e+00 3.116000000000000014e+01 2.842099999999999937e+01 1.736216999999999899e+01 5.191256039772160907e-02
-1.188399999999999901e+00 2.594999999999999929e+01 4.100799999999999557e+00 1.189144999999999959e-02 1.712544728713916720e-01
-1.183899999999999952e+00 2.148699999999999832e+01 3.478699999999999903e+01 4.559756000000000142e+00 5.265247299814290738e-02
-1.168700000000000072e+00 8.213100000000000733e+00 2.165599999999999881e+01 -9.623766999999999427e+01 1.544707961372427697e-02
-1.167899999999999938e+00 2.033999999999999986e+01 3.484700000000000131e+01 -8.706787000000000276e-01 5.257987816674426773e-02
-1.165999999999999925e+00 1.125999999999999890e+00 1.805099999999999927e+00 1.868791999999999831e+01 2.044256339344825424e-01
-1.163599999999999968e+00 3.135699999999999932e+01 1.241000000000000014e+01 -8.382163000000000252e+00 2.489432508973582481e-02
-1.163599999999999968e+00 3.135699999999999932e+01 1.381000000000000050e+01 8.371575999999999240e+00 2.476582819627002469e-02
-1.163599999999999968e+00 3.222299999999999898e+01 1.381000000000000050e+01 1.719014000000000097e-01 2.515484886104769544e-02
-1.160800000000000054e+00 -1.100999999999999979e+01 2.629599999999999937e+01 -2.002689000000000163e+01 -2.709067108083620390e-01
-1.155699999999999950e+00 1.799299999999999855e+01 -4.456699999999999662e+00 -4.033465999999999774e+00 1.736519707971526105e-01
-1.151299999999999990e+00 3.450099999999999767e+01 1.513100000000000023e+01 -5.747461000000000375e+00 4.002543499535894667e-02
-1.145000000000000018e+00 3.527499999999999858e+01 1.624599999999999866e+01 -5.363533999999999580e+00 5.073561960572057356e-02
-1.145000000000000018e+00 3.552900000000000347e+01 1.714000000000000057e+01 -6.689582999999999835e+00 5.093256990686541308e-02
-1.142300000000000093e+00 -1.909299999999999886e-01 1.770599999999999952e+00 1.626109999999999900e+01 1.217942232547498255e-01
-1.141999999999999904e+00 2.979599999999999937e+01 3.023100000000000165e+01 1.424956000000000067e+01 5.217018990256468841e-02
-1.141999999999999904e+00 3.080300000000000082e+01 2.922400000000000020e+01 2.104910999999999888e+01 5.208354886771708603e-02
-1.141299999999999981e+00 2.955699999999999861e+01 7.687100000000000044e+00 -1.972766999999999937e+00 3.928716327265265040e-02
-1.138500000000000068e+00 2.645399999999999974e+00 1.751200000000000045e+01 -5.777485000000000070e+01 1.660998350944511634e-02
-1.138500000000000068e+00 3.836300000000000043e+00 1.817599999999999838e+01 -2.736762999999999835e+01 1.513318723591652523e-02
-1.134400000000000075e+00 2.276800000000000068e+01 3.794999999999999929e+00 8.027661000000000380e-01 1.707007966979361413e-01
-1.131499999999999950e+00 1.999299999999999855e+01 2.876199999999999868e-01 2.436942000000000164e+01 1.716485078997314062e-01
-1.128600000000000048e+00 -1.172600000000000087e+01 1.699299999999999855e+01 7.459723000000000326e+00 -1.878238697794236967e-01
-1.123599999999999932e+00 6.615999999999999659e+00 6.370599999999999596e+00 -9.549697000000000102e+00 1.665767347579369950e-01
-1.119399999999999951e+00 -3.736499999999999932e+00 2.346000000000000085e+00 1.197868000000000066e+01 1.263449414641493740e-01
-1.118999999999999995e+00 -1.256000000000000050e+01 2.471399999999999864e+01 2.320683000000000007e+01 -2.699982300741795016e-01
-1.118999999999999995e+00 -1.223499999999999943e+01 2.545100000000000051e+01 2.299523999999999901e+00 -2.701529416276462481e-01
-1.118999999999999995e+00 2.302899999999999991e+01 3.468699999999999761e+01 7.483419999999999561e+01 5.277783491417982475e-02
-1.116400000000000059e+00 7.429199999999999804e+00 6.977699999999999569e+00 -1.509493999999999936e+01 1.658731893552491399e-01
-1.116400000000000059e+00 1.025000000000000000e+01 7.641700000000000159e+00 -1.196304999999999952e+00 1.655369923074289373e-01
-1.113699999999999912e+00 2.990099999999999980e+01 8.509999999999999787e+00 2.197575000000000145e+01 3.917467898433239087e-02
-1.110200000000000076e+00 -4.346000000000000085e+00 3.243399999999999750e+01 2.673669999999999902e+01 -1.045463618955479526e-02
-1.110200000000000076e+00 -2.946000000000000174e+00 3.243399999999999750e+01 8.213491000000000541e-01 -1.387037496263521762e-02
-1.103699999999999903e+00 2.447400000000000020e+01 3.392099999999999937e+01 -1.312509999999999977e+01 5.260214538732336381e-02
-1.102700000000000014e+00 2.731299999999999883e+01 1.381900000000000084e+01 1.682845000000000013e+01 2.277424313198871120e-02
-1.101199999999999957e+00 1.565600000000000058e+01 -4.228299999999999947e+00 8.011177000000000437e-01 1.736706290787517204e-01
-1.098999999999999977e+00 2.544399999999999906e+01 1.602199999999999847e+01 1.743740999999999985e+01 2.164313244547488163e-02
-1.098999999999999977e+00 2.565299999999999869e+01 1.528599999999999959e+01 2.120232000000000028e+01 2.176805256461723098e-02
-1.098999999999999977e+00 2.565299999999999869e+01 1.675799999999999912e+01 1.295888000000000062e+01 2.178406769260366957e-02
-1.092700000000000005e+00 7.493000000000000327e+00 -2.963299999999999823e-01 5.857790999999999748e+00 1.726625828163686482e-01
-1.092300000000000049e+00 1.472899999999999920e+01 1.444700000000000095e+00 -4.586570000000000036e+00 1.705839519885773981e-01
-1.092300000000000049e+00 1.591999999999999993e+01 2.108600000000000030e+00 9.376125999999999294e+00 1.702920884408016255e-01
-1.084300000000000042e+00 -9.474999999999999645e+00 3.207900000000000063e+01 -3.100412000000000035e+01 -2.705248324038215801e-01
-1.076100000000000056e+00 2.246499999999999986e+01 3.095000000000000195e+00 -1.977929999999999966e+00 1.708929790451748920e-01
-1.070999999999999952e+00 3.301400000000000290e+01 2.334199999999999875e+01 -3.846067000000000036e+01 5.105200265165029533e-02
-1.060300000000000020e+00 2.607300000000000040e+01 1.457900000000000063e+01 3.014417999999999864e+01 2.205221590516137989e-02
-1.050000000000000044e+00 3.582800000000000296e+01 1.882799999999999940e+01 -2.943719000000000108e+01 5.126458314770008379e-02
-1.050000000000000044e+00 3.582800000000000296e+01 1.976800000000000068e+01 -3.302176999999999651e+01 5.140228440914869357e-02
-1.044599999999999973e+00 3.333200000000000074e+01 1.406900000000000084e+01 -1.441790999999999912e+01 2.564268003186637168e-02
-1.039900000000000047e+00 2.835099999999999909e+01 1.699299999999999855e+01 1.005616000000000021e+01 2.327183689591825685e-02
-1.036299999999999999e+00 -1.287599999999999945e+01 1.650199999999999889e+01 1.715033000000000030e+01 -1.879934379166576797e-01
-1.035500000000000087e+00 6.209600000000000009e+00 4.477800000000000114e-01 7.529241999999999990e+00 1.725175687988331763e-01
-1.034699999999999953e+00 -2.711300000000000043e+00 1.778000000000000025e+00 8.999022999999999328e+00 1.247086463861994676e-01
-1.034000000000000030e+00 2.602799999999999869e+01 3.285199999999999676e+01 -1.526523000000000074e+01 5.237712801219886194e-02
-1.030100000000000016e+00 3.564500000000000313e+01 1.807600000000000051e+01 -1.204285999999999923e+01 5.109358623554135365e-02
-1.029300000000000104e+00 -1.045199999999999996e+01 1.622200000000000131e+01 4.058661999999999992e+00 -1.889278225020082913e-01
-1.028100000000000014e+00 1.671799999999999997e+01 4.588199999999999612e+00 -4.085948000000000135e+00 1.690497237496724203e-01
-1.019400000000000084e+00 -2.339599999999999902e+00 3.245100000000000051e+01 -4.579771000000000036e+00 -1.538911080797196983e-02
-1.007100000000000106e+00 1.240700000000000003e+01 2.355900000000000105e+00 -2.687803999999999860e+01 1.698858683274841463e-01
-1.006399999999999961e+00 1.083300000000000018e+01 3.658500000000000085e+01 1.496574000000000026e+01 -3.989404230854192573e-02
-1.002000000000000002e+00 6.886999999999999567e+00 3.510799999999999699e+01 1.933532999999999902e+01 -2.789421384906439275e-02
-1.002000000000000002e+00 6.886999999999999567e+00 3.606600000000000250e+01 2.826792000000000016e+01 -2.639342123287781797e-02
-1.000499999999999945e+00 4.182500000000000107e+00 2.379100000000000037e+01 -3.101855000000000118e+01 2.096601151260119381e-02
-9.997000000000000330e-01 3.462299999999999756e+01 2.079200000000000159e+01 -1.529623999999999917e+01 5.111720047132419648e-02
-9.981600000000000472e-01 -8.862099999999999866e+00 7.771600000000000286e+00 1.681703999999999866e+01 1.371980716261703148e-01
-9.936800000000000077e-01 6.786999999999999922e+00 3.357099999999999795e+01 4.355584000000000344e+00 -3.042412641808558277e-02
-9.936800000000000077e-01 6.996100000000000207e+00 3.430700000000000216e+01 1.043815999999999988e+01 -2.936904257910664603e-02
-9.679999999999999716e-01 -1.082799999999999940e+01 2.005699999999999861e+01 -1.148135000000000083e+01 -1.865171170799159173e-01
-9.653100000000000014e-01 1.198799999999999955e+01 3.625800000000000267e+01 -2.506791000000000214e+00 -4.048249179839238931e-02
-9.553300000000000125e-01 2.912999999999999812e+00 8.686700000000000532e-01 5.692137000000000446e-01 2.004596490223611305e-01
-9.504599999999999715e-01 -1.720699999999999896e+00 1.670400000000000107e+00 4.152395000000000280e+00 1.235030928950259649e-01
-9.503800000000000026e-01 -1.383799999999999919e+01 2.378699999999999903e+01 9.661837000000000231e+00 -2.690995723850533872e-01
-9.503300000000000081e-01 1.229100000000000037e+01 -3.352300000000000058e+00 2.967934000000000072e+00 1.735835665514176285e-01
-9.457400000000000251e-01 4.296700000000000408e+00 1.855499999999999972e+01 -3.391501000000000232e+01 1.531525413941021464e-02
-9.413300000000000001e-01 -6.892999999999999794e+00 3.331799999999999784e+01 2.734116999999999909e+00 -4.039947225551445906e-03
-9.413300000000000001e-01 -5.192999999999999616e+00 3.331799999999999784e+01 1.571940999999999988e+01 -7.877382477512000908e-03
-9.399999999999999467e-01 1.133799999999999919e+01 2.233000000000000096e+00 -2.358563999999999883e+00 1.699839676991015402e-01
-9.373799999999999910e-01 2.527799999999999869e+01 3.362800000000000011e+01 -1.908979000000000070e+01 5.259781134127825691e-02
-9.354900000000000437e-01 5.882399999999999629e+00 4.646099999999999675e+00 -2.113627999999999929e+01 1.686324951393189664e-01
-9.354900000000000437e-01 6.091499999999999915e+00 3.910099999999999909e+00 -2.737625999999999848e+01 1.693203557329720499e-01
-9.353299999999999947e-01 1.510100000000000087e+01 5.996699999999999697e+00 -1.296435999999999922e+00 1.678979935424841918e-01
-9.352700000000000458e-01 2.960500000000000043e+01 1.633399999999999963e+01 9.430837999999999610e+00 2.391555286269803765e-02
-9.319800000000000306e-01 2.686599999999999966e+01 3.883000000000000007e+00 -4.200021999999999700e+00 1.714938049540586928e-01
-9.314200000000000257e-01 2.402799999999999869e+01 4.120199999999999640e+00 2.296011000000000024e+00 1.708566900804794897e-01
-9.253799999999999804e-01 2.726899999999999835e+01 3.205700000000000216e+01 1.445220999999999911e+01 5.228707744027921711e-02
-9.136699999999999822e-01 8.045999999999999375e+00 3.746300000000000097e+01 8.709870999999999697e+00 -2.567915744307927572e-02
-9.136699999999999822e-01 9.746000000000000441e+00 3.746300000000000097e+01 2.003096999999999994e+01 -2.730255576161789641e-02
-9.129000000000000448e-01 1.664000000000000057e+01 3.543699999999999761e+01 2.621424999999999894e+00 -4.126430923017328223e-02
-9.126499999999999613e-01 2.785399999999999920e+01 3.176999999999999957e+01 1.504829999999999934e+01 5.229807478878444049e-02
-9.126499999999999613e-01 2.878999999999999915e+01 3.176999999999999957e+01 1.152776000000000067e+01 5.251340899203268270e-02
-9.083599999999999453e-01 6.373000000000000220e+00 2.393199999999999861e+01 -5.357027999999999679e+01 1.925063406934476515e-02
-9.079300000000000148e-01 1.377500000000000036e+01 6.621299999999999741e+00 2.342162000000000077e+00 1.671839343996905647e-01
-9.074499999999999789e-01 3.355700000000000216e+01 2.268499999999999872e+01 -2.078717999999999932e+01 5.110405298122427942e-02
-9.043999999999999817e-01 1.072799999999999976e+01 7.668999999999999595e+00 -7.137375000000000247e-01 1.657087312584765992e-01
-9.033499999999999863e-01 1.275300000000000011e+01 6.938699999999999868e+00 -1.028775999999999913e+00 1.667147858991090970e-01
-8.933799999999999519e-01 -1.057699999999999996e+01 2.699599999999999866e+01 -9.816122000000000458e-01 -2.710593536353466115e-01
-8.873299999999999521e-01 -9.128000000000000114e+00 9.973699999999999122e+00 8.058265000000000455e+00 -6.357766081280050163e-02
-8.797500000000000320e-01 7.860700000000000465e-01 1.869900000000000162e+01 -2.127965999999999980e+01 2.213446321228142166e-02
-8.792200000000000015e-01 2.977499999999999858e+01 1.537500000000000000e+01 8.884436000000000888e+00 2.402321927073059610e-02
-8.760400000000000409e-01 -7.308900000000000396e+00 3.646999999999999797e+00 -6.288978000000000623e-02 1.339707835908840461e-01
-8.741299999999999626e-01 1.906599999999999895e+01 3.550399999999999778e+01 -1.379743999999999993e+01 -4.066704177945908161e-02
-8.669999999999999929e-01 -1.033099999999999952e+01 1.969600000000000151e+01 -1.704045999999999950e+01 -1.868958743686825463e-01
-8.661400000000000210e-01 2.330000000000000071e+01 3.916599999999999859e+00 2.646263999999999950e+00 1.707736389439747648e-01
-8.627200000000000424e-01 5.587399999999999700e+00 2.064399999999999835e+01 -6.080519999999999925e+01 1.621955739377425182e-02
-8.626200000000000534e-01 1.826000000000000068e+00 1.746899999999999897e+00 -1.432136000000000076e+00 2.022694873901186852e-01
-8.588999999999999968e-01 1.218200000000000038e+01 7.379699999999999704e+00 -3.365327999999999875e+00 1.662861101358903970e-01
-8.585399999999999698e-01 1.475200000000000067e+01 -4.129500000000000171e+00 1.294791999999999943e+00 1.736780767912339263e-01
-8.576700000000000434e-01 -1.538799999999999990e+01 2.319500000000000028e+01 7.797068999999999583e+00 -2.679718937563030368e-01
-8.565199999999999481e-01 -1.682100000000000151e+01 1.871099999999999852e+01 1.864311000000000051e+00 -1.557542808709194149e-01
-8.562300000000000466e-01 6.183399999999999785e+00 5.670600000000000307e+00 -1.444811999999999941e+01 1.674985734230277634e-01
-8.540200000000000014e-01 9.755000000000000782e+00 -1.449999999999999956e+00 2.360234999999999861e+00 1.728685096945102029e-01
-8.486200000000000410e-01 -7.980000000000000426e+00 3.243999999999999773e+01 -1.334858999999999973e+01 -2.711072614772741529e-01
-8.476500000000000146e-01 9.528200000000000003e+00 2.773000000000000131e+00 1.366417000000000037e+01 1.696764532460374453e-01
-8.395000000000000240e-01 1.384099999999999930e+01 -3.826400000000000023e+00 2.774150999999999812e+00 1.736192304885907089e-01
-8.280999999999999472e-01 2.069300000000000139e+01 3.458999999999999853e-01 2.308471000000000117e+01 1.716964597080564148e-01
-8.272300000000000209e-01 1.958099999999999952e+00 2.146999999999999886e+01 -2.581726000000000099e+01 2.200553021598116582e-02
-8.239999999999999547e-01 -1.050200000000000067e+01 2.778200000000000003e+01 3.112754999999999939e+00 -2.709347075922518555e-01
-8.237700000000000022e-01 6.727899999999999991e+00 2.112000000000000099e+01 -7.879146000000000072e+01 1.602261549802575305e-02
-8.231600000000000028e-01 2.833699999999999974e+01 1.375200000000000067e+01 8.645317999999999614e+00 2.341386881778943774e-02
-8.231600000000000028e-01 2.952799999999999869e+01 1.441600000000000037e+01 5.639504999999999768e+00 2.395939606220628265e-02
-8.138800000000000479e-01 7.116500000000000048e-01 1.962399999999999878e+01 -1.780172999999999917e+01 2.307278722986487798e-02
-8.079800000000000315e-01 2.300200000000000022e-01 3.199599999999999866e+01 -1.232300000000000040e+01 -2.212438174689142917e-02
-8.072899999999999521e-01 1.520000000000000018e+00 3.260000000000000142e+01 -2.702082000000000050e+01 -2.378307912427024204e-02
-8.072899999999999521e-01 3.040000000000000036e+00 3.260000000000000142e+01 -6.483455999999999619e+01 -2.663611745827487720e-02
-8.068400000000000016e-01 -3.645999999999999908e+00 3.237599999999999767e+01 9.648210000000000619e+00 -1.254960902441507563e-02
-8.028899999999999926e-01 1.453599999999999959e+01 3.597500000000000142e+01 -1.490901000000000032e+01 -4.089445568131545167e-02
-7.970099999999999962e-01 2.809900000000000020e+01 4.993999999999999773e+00 -5.772916000000000025e+01 3.969273733961563300e-02
-7.970000000000000417e-01 2.878999999999999915e+01 3.328499999999999659e+01 4.310035000000000061e+00 5.310943814927543416e-02
-7.967199999999999838e-01 2.825600000000000112e+00 2.221799999999999997e+01 -3.260688999999999993e+01 2.133954489069162311e-02
