-4.184100000000000108e+01 2.772200000000000131e+01 -2.706099999999999994e+01 1.303873999999999977e+00 -3.949401958473212071e-01
-4.184000000000000341e+01 6.804600000000000648e+01 -1.241900000000000048e+01 4.809329000000000320e+01 8.473552278264667725e-02
-4.183700000000000330e+01 3.054799999999999827e+01 -5.761400000000000077e+00 -2.916395000000000071e+00 -2.747696565401376856e-01
-4.183299999999999841e+01 3.924099999999999966e+01 -3.771900000000000119e+01 -5.646062999999999832e+00 -3.955199898294848304e-01
-4.182300000000000040e+01 6.146900000000000119e+01 -5.562000000000000277e+00 -1.675799000000000039e+00 -7.925994370408388431e-03
-4.182300000000000040e+01 6.172299999999999898e+01 -6.455700000000000216e+00 -2.683193000000000161e+00 1.581645679819550232e-02
-4.182300000000000040e+01 6.316899999999999693e+01 -3.862000000000000099e+00 -1.291069000000000022e+00 -1.999132970882650136e-03
-4.180700000000000216e+01 2.607600000000000051e+01 -3.558899999999999864e+01 -1.407747999999999999e+00 -3.956302350851649274e-01
-4.179800000000000182e+01 2.724200000000000088e+01 -3.637500000000000000e+01 -1.660144999999999982e+00 -3.956448262015161421e-01
-4.179299999999999926e+01 2.471699999999999875e+01 -3.463100000000000023e+01 -1.359836999999999962e+00 -3.956143884361701391e-01
-4.179200000000000159e+01 4.886599999999999966e+01 -2.250700000000000145e+01 3.199218999999999813e+00 -3.914079475361339489e-01
-4.178900000000000148e+01 5.772099999999999653e+01 -1.054499999999999993e+01 -5.012222000000000399e+00 -3.646802361739277104e-02
-4.178900000000000148e+01 5.912100000000000222e+01 -1.054499999999999993e+01 -1.795998000000000161e+01 7.084266613230208454e-02
-4.178900000000000148e+01 3.317399999999999949e+01 -4.166999999999999815e+00 4.064320999999999628e+00 1.408347271498172106e-02
-4.178600000000000136e+01 4.689699999999999847e+01 -6.645400000000000418e+00 3.218252000000000113e+00 -2.803950911511123856e-01
-4.178600000000000136e+01 5.022699999999999676e+01 -2.170899999999999963e+01 1.212055000000000105e+00 -7.089088146135257007e-02
-4.178300000000000125e+01 6.110499999999999687e+01 -1.640200000000000102e+01 1.210601999999999956e+00 9.049349255619616728e-02
-4.178300000000000125e+01 6.250500000000000256e+01 -1.640200000000000102e+01 2.834026999999999852e+00 9.095161397017227645e-02
-4.178199999999999648e+01 5.378699999999999903e+01 -5.783199999999999896e+00 -3.377967999999999904e+01 1.843794525683316032e-01
-4.178099999999999881e+01 4.275300000000000011e+01 -3.464599999999999902e+00 -1.140503000000000045e+00 -2.909593507127154477e-01
-4.178000000000000114e+01 4.672699999999999676e+01 -6.165600000000000414e+00 9.364329000000000125e-01 -2.792730136374136918e-01
-4.178000000000000114e+01 4.672699999999999676e+01 -5.300300000000000011e+00 -5.628409999999999691e+00 -2.751868451233983048e-01
-4.177600000000000335e+01 6.117000000000000171e+01 -2.071199999999999974e+01 5.307882000000000211e+00 -1.278197373322859931e-01
-4.177100000000000080e+01 6.498099999999999454e+01 -1.929299999999999926e+01 3.761598999999999915e+00 8.971952874089184071e-02
-4.176299999999999812e+01 4.694200000000000017e+01 -4.490999999999999659e+00 -2.305739000000000161e+01 -2.694729880137864964e-01
-4.176100000000000279e+01 2.750600000000000023e+01 -3.687800000000000011e+01 -2.816990000000000105e+00 -3.956656273444178473e-01
-4.175999999999999801e+01 4.567399999999999949e+01 -3.631899999999999906e+00 -1.529340000000000011e+01 -2.761406987432325488e-01
-4.175399999999999778e+01 3.400800000000000267e+01 -2.591899999999999871e+00 4.564347999999999850e+00 1.553336786720672935e-02
-4.174300000000000210e+01 6.065400000000000347e+01 -2.457999999999999829e+01 7.419464999999999755e+00 -3.947805367618769656e-01
-4.172800000000000153e+01 5.932500000000000284e+01 -2.198999999999999844e+00 -2.614939000000000124e+00 3.319112508978715459e-01
-4.172699999999999676e+01 6.360600000000000165e+01 -1.837199999999999989e+01 2.135949999999999793e+00 9.025532056123662661e-02
-4.172699999999999676e+01 6.635599999999999454e+01 -1.837199999999999989e+01 5.338057000000000052e+00 8.925385441909328144e-02
-4.172599999999999909e+01 6.616700000000000159e+01 -8.378000000000000114e+00 9.323558000000000234e+00 6.857053887365983924e-02
-4.172299999999999898e+01 4.015800000000000125e+01 -3.665800000000000125e+01 -3.607975999999999850e+00 -3.953929182942795273e-01
-4.172299999999999898e+01 4.102300000000000324e+01 -3.665800000000000125e+01 -2.727635999999999949e+00 -3.953863209535505296e-01
-4.172200000000000131e+01 2.508599999999999852e+01 -3.548100000000000165e+01 -2.588213999999999793e+00 -3.956458052697395256e-01
-4.172200000000000131e+01 2.508599999999999852e+01 -3.378099999999999881e+01 -4.902300999999999576e+00 -3.955490254019108365e-01
-4.172200000000000131e+01 2.635800000000000054e+01 -3.207500000000000284e+01 1.715257000000000032e+00 -3.953930165384765827e-01
-4.172200000000000131e+01 2.656700000000000017e+01 -3.133899999999999864e+01 1.160398999999999958e+01 -3.953328832901467083e-01
-4.171900000000000119e+01 5.982699999999999818e+01 -1.893000000000000016e+00 -1.596735999999999933e+00 3.390239279878400902e-01
-4.171099999999999852e+01 4.191700000000000159e+01 -3.565999999999999837e+00 6.916587999999999958e+00 -2.931892726684242056e-01
-4.170900000000000318e+01 4.768599999999999994e+01 -2.756299999999999883e+01 2.391322999999999865e+01 -3.935473119120896923e-01
-4.170900000000000318e+01 4.768599999999999994e+01 -2.669699999999999918e+01 3.769124000000000141e+00 -3.932498228027269116e-01
-4.170900000000000318e+01 4.347200000000000131e+01 -3.197400000000000020e+01 1.126703999999999972e+01 -3.946779334547938500e-01
-4.170600000000000307e+01 3.318599999999999994e+01 -3.750500000000000256e+01 -7.332837999999999745e+00 -3.955775317381499123e-01
-4.170600000000000307e+01 3.405199999999999960e+01 -3.750500000000000256e+01 -8.794138000000000233e+00 -3.955610255711716206e-01
-4.170000000000000284e+01 4.661299999999999955e+01 -3.730999999999999872e+00 -2.075516999999999967e+01 -2.688672335198775132e-01
-4.169899999999999807e+01 2.655199999999999960e+01 -2.989300000000000068e+01 -2.380357000000000056e+00 -3.952278371999898288e-01
-4.169899999999999807e+01 2.655199999999999960e+01 -2.895299999999999940e+01 -8.731149000000000271e+00 -3.951581380816505118e-01
-4.169899999999999807e+01 6.206799999999999784e+01 -2.377599999999999980e+01 6.022614000000000090e+01 -1.231117727895013891e-01
-4.169800000000000040e+01 2.666300000000000026e+01 -3.069000000000000128e+01 -1.198315999999999937e+00 -3.952800609085564409e-01
-4.169100000000000250e+01 3.793200000000000216e+01 -3.989999999999999858e+01 -1.077993000000000023e+01 -3.957025532791260680e-01
-4.168800000000000239e+01 2.866400000000000148e+01 -9.502000000000000668e+00 -1.809002999999999917e+00 -2.735264356923114426e-01
-4.168800000000000239e+01 2.876200000000000045e+01 -7.967999999999999972e+00 -1.908439999999999914e+00 -2.738590476326770995e-01
-4.168800000000000239e+01 2.887300000000000111e+01 -8.765900000000000247e+00 -6.699810000000000487e-01 -2.737159149377068057e-01
-4.168800000000000239e+01 2.898900000000000077e+01 -7.168899999999999828e+00 -2.244988999999999901e+00 -2.740712696329593578e-01
-4.168399999999999750e+01 5.157000000000000028e+01 -2.111599999999999966e+01 -6.280133000000000187e+00 -7.314374557065667082e-02
-4.167900000000000205e+01 4.769800000000000040e+01 -7.747600000000000264e+00 -3.020216999999999885e+01 -2.805760976421739494e-01
-4.167099999999999937e+01 5.688100000000000023e+01 -9.678900000000000503e+00 1.439322999999999979e+02 -1.999763143379992836e-01
-4.166499999999999915e+01 3.985399999999999920e+01 -3.735799999999999699e+01 -5.441780999999999757e+00 -3.954628815523618668e-01
-4.166400000000000148e+01 6.233899999999999864e+01 -2.454299999999999926e+01 1.715175999999999945e+01 -3.955132763019618136e-01
-4.165400000000000347e+01 4.518900000000000006e+01 -3.501900000000000013e+00 -3.967146000000000061e+00 -2.788256428087688144e-01
-4.165400000000000347e+01 5.567799999999999727e+01 -2.578500000000000014e+01 3.495864000000000082e+00 -2.779540076707683882e-01
-4.165100000000000335e+01 2.778399999999999892e+01 -3.761399999999999721e+01 -2.411417000000000144e+00 -3.956946976659045934e-01
-4.164800000000000324e+01 3.435499999999999687e+01 -3.820499999999999829e+01 -8.715488000000000568e+00 -3.956058545601667809e-01
-4.164500000000000313e+01 6.154399999999999693e+01 -1.020299999999999940e+01 2.903973999999999833e+01 7.272139082619195893e-02
-4.163799999999999812e+01 6.288400000000000034e+01 -9.234700000000000131e+00 1.039789999999999992e+01 6.722096931483453885e-02
-4.163799999999999812e+01 6.309300000000000352e+01 -8.498699999999999477e+00 -4.647094000000000058e+00 5.997557675176105885e-02
-4.163199999999999790e+01 5.069899999999999807e+01 -7.410999999999999588e+00 -3.295920000000000272e+01 -2.665010400931141499e-01
-4.162899999999999778e+01 6.724200000000000443e+01 -1.659299999999999997e+01 1.595908000000000015e+01 8.836895719819862216e-02
-4.162500000000000000e+01 5.010699999999999932e+01 -7.720600000000000129e+00 -3.855046000000000106e+01 -2.700809318733189968e-01
-4.162199999999999989e+01 6.563800000000000523e+01 -6.533999999999999808e+00 2.770849999999999813e+00 5.150369472289330341e-02
-4.162100000000000222e+01 4.167099999999999937e+01 -3.240899999999999892e+01 1.584060000000000024e+01 -3.947789961075966469e-01
-4.161999999999999744e+01 6.696800000000000352e+01 -1.743400000000000105e+01 1.406573999999999991e+01 8.863118406986722486e-02
-4.161899999999999977e+01 5.234700000000000131e+01 -4.533100000000000129e+00 -7.553518999999999650e+00 2.428389055096774329e-01
-4.160999999999999943e+01 3.537800000000000011e+01 -4.070199999999999818e+01 -3.658579000000000025e+00 -3.957705950932087768e-01
-4.160999999999999943e+01 3.689800000000000324e+01 -4.070199999999999818e+01 -4.118329000000000129e+00 -3.957602505250637503e-01
-4.160300000000000153e+01 5.494200000000000017e+01 -6.499799999999999578e+00 8.594623999999999597e+00 1.342106488642523243e-01
-4.159899999999999665e+01 6.104500000000000171e+01 -2.531800000000000139e+01 3.217457000000000011e+00 -3.949667553137973242e-01
-4.159899999999999665e+01 6.200300000000000011e+01 -2.531800000000000139e+01 6.090467000000000297e+00 -3.954138599464941395e-01
-4.159400000000000119e+01 2.787800000000000011e+01 -3.851599999999999824e+01 -2.424322000000000088e+00 -3.957402834727531404e-01
-4.159199999999999875e+01 5.758400000000000318e+01 -2.198999999999999844e+00 4.326499000000000095e+00 3.114790568275329075e-01
-4.159100000000000108e+01 2.791100000000000136e+01 -1.033999999999999986e+01 -9.147462000000000870e+00 -2.732679052058246683e-01
-4.159100000000000108e+01 6.235399999999999920e+01 -3.804600000000000204e+00 -2.089774999999999938e+00 -1.571839756734983579e-02
-4.159000000000000341e+01 4.234100000000000108e+01 -3.122100000000000009e+01 1.496554000000000073e+01 -3.945426271578708621e-01
-4.159000000000000341e+01 4.320600000000000307e+01 -3.122100000000000009e+01 1.569280999999999970e+01 -3.945217567463081276e-01
-4.158599999999999852e+01 2.689499999999999957e+01 -1.295199999999999996e+01 -1.189694999999999947e+00 -2.727196002450830159e-01
-4.158599999999999852e+01 2.689499999999999957e+01 -1.126600000000000001e+01 -8.139507999999999299e+00 -2.729887314456800884e-01
-4.158299999999999841e+01 3.894800000000000040e+01 -3.865299999999999869e+01 2.527401999999999926e+00 -3.955838258034764521e-01
-4.158200000000000074e+01 2.945200000000000173e+01 -1.338899999999999935e+01 2.934073999999999849e+00 -2.728733916876210364e-01
-4.158100000000000307e+01 3.099399999999999977e+01 -1.421499999999999986e+01 3.614037000000000166e+00 -3.065297587587542116e-01
-4.157999999999999829e+01 4.802499999999999858e+01 -2.411199999999999832e+01 -2.892867999999999995e+01 -3.921886232006641104e-01
-4.157999999999999829e+01 4.823400000000000176e+01 -2.337600000000000122e+01 -6.269154999999999589e+00 -3.918423101492317095e-01
-4.157600000000000051e+01 5.353199999999999648e+01 -2.184600000000000009e+01 -9.127655999999999992e+00 -2.727491112566848286e-01
-4.157500000000000284e+01 5.413000000000000256e+01 -2.484299999999999997e+01 -1.338252999999999915e+00 -2.755753502154150714e-01
-4.157200000000000273e+01 5.329699999999999704e+01 -5.008799999999999919e+00 -1.726210000000000022e+01 2.016257823234970936e-01
-4.157099999999999795e+01 4.776700000000000301e+01 -2.585300000000000153e+01 -7.045889999999999986e+00 -3.929234625013296456e-01
-4.157099999999999795e+01 4.797599999999999909e+01 -2.511700000000000088e+01 -2.691932999999999865e+01 -3.926291131829554026e-01
-4.156900000000000261e+01 3.112800000000000011e+01 -1.606099999999999994e+01 2.481978999999999935e+00 -3.040290125531920351e-01
-4.156900000000000261e+01 3.133699999999999974e+01 -1.532499999999999929e+01 2.228953999999999880e+00 -3.049225156733352260e-01
-4.156600000000000250e+01 5.716100000000000136e+01 -2.494800000000000040e+01 -8.560294999999999987e-01 -3.939733838008550038e-01
-4.156300000000000239e+01 4.658899999999999864e+01 -3.181500000000000128e+01 4.258765999999999607e+00 -2.759499419657184260e-01
-4.156300000000000239e+01 4.790800000000000125e+01 -3.107999999999999829e+01 -1.001651000000000069e+00 -2.758069694993441345e-01
-4.156300000000000239e+01 4.813900000000000290e+01 -3.026500000000000057e+01 9.419155999999999196e+00 -2.752628594972969522e-01
-4.155899999999999750e+01 3.235300000000000153e+01 -3.795700000000000074e+01 -4.356995999999999647e+00 -3.956151511573853252e-01
-4.155299999999999727e+01 3.756300000000000239e+01 -2.552000000000000046e+00 -1.439184999999999981e+01 2.611157535912784350e-02
-4.155100000000000193e+01 5.157699999999999818e+01 -5.970500000000000362e+00 -1.556157999999999930e+01 -5.882763637153060055e-02
-4.153300000000000125e+01 2.656500000000000128e+01 -1.210899999999999999e+01 -1.240845000000000020e+01 -2.728339530845721450e-01
-4.153099999999999881e+01 2.820700000000000074e+01 -3.927600000000000335e+01 -2.103812000000000015e+00 -3.957719668985754113e-01
-4.152499999999999858e+01 2.662900000000000134e+01 -2.400600000000000023e+01 -3.080266999999999866e-01 -2.997129965616620040e-01
-4.152499999999999858e+01 2.674699999999999989e+01 -2.315899999999999892e+01 9.401131999999999822e-01 -3.000784030119163504e-01
-4.152199999999999847e+01 5.919899999999999807e+01 -2.935900000000000176e+00 -2.799487000000000059e+00 3.295571895421941511e-01
-4.152100000000000080e+01 5.795300000000000296e+01 -3.048999999999999932e+00 -8.550242999999999594e-01 3.149605739639976254e-01
-4.152100000000000080e+01 5.795300000000000296e+01 -1.348999999999999977e+00 6.394506999999999941e+00 3.171988344125634685e-01
-4.151400000000000290e+01 3.016700000000000159e+01 -3.897099999999999653e+01 -2.461380999999999819e+00 -3.957189440410015524e-01
-4.150399999999999778e+01 4.137400000000000233e+01 -3.297099999999999653e+01 1.231246999999999936e+01 -3.948645944492024662e-01
-4.150200000000000244e+01 4.143900000000000006e+01 -3.705199999999999960e+01 -2.645382000000000122e+00 -3.954044466850246686e-01
-4.150099999999999767e+01 6.279899999999999949e+01 -7.565400000000000347e+00 -2.998444000000000109e+00 4.456017687914522879e-02
-4.149799999999999756e+01 3.911899999999999977e+01 -3.021900000000000031e+00 -2.673359000000000041e+00 3.317897100585412429e-02
-4.149600000000000222e+01 4.355899999999999750e+01 -3.501900000000000013e+00 3.367964000000000180e+00 -2.870310915023065457e-01
-4.149499999999999744e+01 5.623799999999999955e+01 -7.474300000000000388e+00 2.935698999999999970e+01 9.735355636604872687e-02
-4.149499999999999744e+01 5.649199999999999733e+01 -8.368000000000000327e+00 -1.138913000000000064e+00 -2.145390606796636068e-01
-4.149000000000000199e+01 5.934400000000000119e+01 -9.641199999999999770e-01 -1.245498999999999912e+00 3.336505762943215991e-01
-4.148599999999999710e+01 6.745000000000000284e+01 -9.284700000000000841e+00 2.800024000000000157e+01 7.336870627033235948e-02
-4.147999999999999687e+01 6.756199999999999761e+01 -1.426299999999999990e+01 2.055045000000000144e+01 8.616348896384284917e-02
-4.147999999999999687e+01 6.078499999999999659e+01 -1.007199999999999918e+01 7.461707999999999785e+00 6.762273686330438904e-02
-4.147699999999999676e+01 4.137599999999999767e+01 -3.401800000000000068e+01 2.013539000000000101e+01 -3.950203170687992538e-01
-4.147599999999999909e+01 2.873199999999999932e+01 -2.033500000000000085e+01 3.764774000000000065e+00 -3.009240075387037416e-01
-4.147599999999999909e+01 2.873199999999999932e+01 -1.886299999999999955e+01 4.635597999999999885e+00 -3.021127061701966432e-01
-4.147599999999999909e+01 2.894099999999999895e+01 -1.959900000000000020e+01 3.538828000000000085e+00 -3.014001765900590213e-01
-4.147200000000000131e+01 2.676699999999999946e+01 -2.488599999999999923e+01 -1.040259999999999962e+00 -2.992742101939562804e-01
-4.146699999999999875e+01 3.113299999999999912e+01 -5.037700000000000067e+00 -1.095231999999999983e+00 1.138759315925074941e-02
-4.146500000000000341e+01 6.072099999999999653e+01 -1.893000000000000016e+00 1.535824999999999996e+00 3.488734801469915991e-01
-4.145900000000000318e+01 2.858500000000000085e+01 -1.346299999999999919e+01 1.344892999999999894e+00 -2.728004733520216218e-01
-4.145499999999999829e+01 2.750600000000000023e+01 -2.117200000000000060e+01 7.169359000000000037e+00 -3.009254456735791505e-01
-4.144599999999999795e+01 2.551800000000000068e+01 -3.322599999999999909e+01 9.535611999999999977e-01 -3.954806668135948944e-01
-4.144299999999999784e+01 3.495000000000000284e+01 -2.440999999999999837e+00 1.249479000000000006e+01 1.818147977378478664e-02
-4.143599999999999994e+01 4.170100000000000051e+01 -3.782000000000000028e+01 -3.002152999999999849e+00 -3.954781164642599545e-01
-4.143099999999999739e+01 5.783100000000000307e+01 -2.401500000000000057e+01 -3.953529000000000071e+00 -3.938877270129239605e-01
-4.143099999999999739e+01 5.923100000000000165e+01 -2.401500000000000057e+01 2.091502000000000194e+00 -3.942653152612414225e-01
-4.142799999999999727e+01 4.026700000000000301e+01 -3.626700000000000035e+00 1.609959999999999880e+01 -2.953708094592799593e-01
-4.142300000000000182e+01 5.282099999999999795e+01 -2.167899999999999849e+01 -6.624022000000000077e+00 -2.716633838714775928e-01
-4.142099999999999937e+01 6.725900000000000034e+01 -1.496299999999999919e+01 1.435106000000000037e+01 8.680106304027973563e-02
-4.141700000000000159e+01 6.841700000000000159e+01 -1.348000000000000043e+01 6.366808999999999941e-01 8.424509582934933127e-02
-4.141700000000000159e+01 3.118799999999999883e+01 -3.847299999999999898e+01 -3.127746000000000137e+00 -3.956616496689245865e-01
-4.141599999999999682e+01 3.343800000000000239e+01 -3.440100000000000158e+00 4.046529999999999738e+00 1.512578525988537981e-02
-4.140899999999999892e+01 2.702199999999999847e+01 -2.819300000000000139e+01 -7.088095000000000034e+00 -3.950472041206823381e-01
-4.140400000000000347e+01 4.122399999999999665e+01 -3.696000000000000174e+00 7.633159000000000027e+00 -2.938523407634793250e-01
-4.140200000000000102e+01 6.413100000000000023e+01 -1.922200000000000131e+01 1.871877999999999931e+00 8.885819435601294281e-02
-4.140200000000000102e+01 6.583100000000000307e+01 -1.922200000000000131e+01 1.959947000000000106e+00 8.838062911837274438e-02
-4.139399999999999835e+01 6.035199999999999676e+01 -2.742999999999999883e+00 -2.417990000000000084e+00 3.443716862879193097e-01
-4.139399999999999835e+01 6.035199999999999676e+01 -1.042999999999999927e+00 5.409843000000000401e+00 3.445292094986173170e-01
-4.139099999999999824e+01 4.818399999999999750e+01 -2.841700000000000159e+01 1.937659999999999982e+01 -2.737713305854699852e-01
-4.138499999999999801e+01 3.634300000000000352e+01 -2.665500000000000203e+00 7.344706000000000401e+00 2.221842739186179888e-02
-4.137599999999999767e+01 4.839800000000000324e+01 -7.805900000000000283e+00 -4.670123999999999853e+01 -2.768361816260684893e-01
-4.137299999999999756e+01 5.992799999999999727e+01 -2.418900000000000006e+01 6.183975000000000222e+00 -3.944736684019342077e-01
-4.137199999999999989e+01 4.468299999999999983e+01 -3.528700000000000170e+00 1.828090999999999910e+00 -2.811756740721859660e-01
-4.137100000000000222e+01 4.525399999999999778e+01 -3.176099999999999923e+01 7.818802999999999948e+00 -3.945820313574089355e-01
-4.136599999999999966e+01 6.213600000000000279e+01 -2.302299999999999969e+01 2.951291000000000153e+01 -1.261020486065995982e-01
-4.136500000000000199e+01 2.654200000000000159e+01 -3.610699999999999932e+01 -1.891885000000000039e+00 -3.956167217079448184e-01
-4.136399999999999721e+01 5.113199999999999790e+01 -6.711000000000000298e+00 -1.227549999999999919e+01 -5.114590395309757259e-02
-4.135699999999999932e+01 5.842099999999999937e+01 -1.081199999999999939e+01 -3.721656999999999993e+00 6.727051013950018088e-02
-4.135699999999999932e+01 3.268299999999999983e+01 -4.563600000000000101e+00 1.964553999999999911e+00 1.390224867281083208e-02
-4.135399999999999920e+01 6.843000000000000682e+01 -1.430700000000000038e+01 -8.656887000000000609e-02 8.499973957815026848e-02
-4.135000000000000142e+01 6.299600000000000222e+01 -1.679899999999999949e+01 1.889344000000000023e-01 8.905171178583567992e-02
-4.135000000000000142e+01 6.320499999999999829e+01 -1.753500000000000014e+01 1.254869000000000012e+00 8.907909945244071870e-02
-4.134899999999999665e+01 5.427799999999999869e+01 -6.179800000000000182e+00 -2.614828999999999937e+01 1.592912355164795291e-01
-4.134100000000000108e+01 6.224399999999999977e+01 -1.014499999999999957e+01 2.579461999999999833e+01 7.068762971032509224e-02
-4.134100000000000108e+01 4.803999999999999915e+01 -2.930799999999999983e+01 1.353905000000000030e+02 -2.744891568666366632e-01
-4.133500000000000085e+01 6.022999999999999687e+01 -1.804799999999999827e+01 8.649550999999999590e+01 -1.386660869240501082e-01
-4.133500000000000085e+01 6.022999999999999687e+01 -1.718299999999999983e+01 4.145582000000000278e+01 -1.443484992712531501e-01
-4.132800000000000296e+01 2.701500000000000057e+01 -3.648100000000000165e+01 -2.053551000000000126e+00 -3.956236784119298022e-01
-4.132800000000000296e+01 5.734000000000000341e+01 -1.040199999999999925e+01 2.218438000000000088e+01 -1.957630298141467828e-01
-4.132500000000000284e+01 4.917699999999999960e+01 -7.802800000000000402e+00 -6.804720000000000368e+01 -2.735278851034272374e-01
-4.132000000000000028e+01 3.490800000000000125e+01 -3.994200000000000017e+01 -1.814412000000000091e+01 -3.956995659196749782e-01
-4.131799999999999784e+01 5.039099999999999824e+01 -2.183699999999999974e+01 9.025020999999999738e-01 -7.333265966992434659e-02
-4.131499999999999773e+01 3.000900000000000034e+01 -6.200599999999999667e+00 -4.915426000000000073e+00 -2.745952718909583923e-01
-4.131400000000000006e+01 6.613599999999999568e+01 -7.339699999999999669e+00 4.956816000000000000e-01 5.832990168553053856e-02
-4.131400000000000006e+01 4.088499999999999801e+01 -3.784899999999999665e+01 -2.902261000000000202e+00 -3.954713820776366018e-01
-4.131199999999999761e+01 5.331199999999999761e+01 -4.562500000000000000e+00 -6.910538999999999987e+00 1.932702688468148633e-01
-4.130899999999999750e+01 5.396500000000000341e+01 -2.254599999999999937e+01 -9.218742999999999910e+00 -2.739702414370674410e-01
-4.130199999999999960e+01 4.000099999999999767e+01 -3.787899999999999778e+01 -3.980027999999999899e+00 -3.954780825135503219e-01
-4.129699999999999704e+01 6.036699999999999733e+01 -1.898300000000000054e+01 4.086171999999999827e+01 -1.343006124636948462e-01
-4.129099999999999682e+01 5.976200000000000045e+01 -9.986599999999999255e+00 -4.056605000000000238e+00 6.183637330829285655e-02
-4.128799999999999670e+01 4.968099999999999739e+01 -2.219500000000000028e+01 4.121325999999999823e+00 -3.913333416218482963e-01
-4.128699999999999903e+01 5.200300000000000011e+01 -2.160699999999999932e+01 -4.005072000000000187e+00 -7.450403706793208569e-02
-4.128499999999999659e+01 5.482800000000000296e+01 -2.571399999999999864e+01 -2.342414999999999914e-01 -2.769579829301518914e-01
-4.128499999999999659e+01 5.652799999999999869e+01 -2.571399999999999864e+01 4.599226000000000147e-01 -2.789006966790356645e-01
-4.128399999999999892e+01 2.845299999999999940e+01 -1.845100000000000051e+01 1.128608000000000056e+00 -3.026865426795951608e-01
-4.128399999999999892e+01 2.412699999999999889e+01 -3.414300000000000068e+01 -2.125512000000000068e+00 -3.955715842422406481e-01
-4.128099999999999881e+01 3.613799999999999812e+01 -4.076500000000000057e+01 -4.449036000000000435e+00 -3.957426351252785746e-01
-4.127700000000000102e+01 6.642100000000000648e+01 -6.533999999999999808e+00 1.700890999999999931e+00 5.333623474536609843e-02
-4.127100000000000080e+01 3.744800000000000040e+01 -4.005599999999999739e+01 -4.803052000000000277e+01 -3.956811195616304344e-01
-4.126899999999999835e+01 4.614300000000000068e+01 -3.197999999999999954e+00 -1.020697000000000010e+01 -2.704643721359195063e-01
-4.126700000000000301e+01 2.791199999999999903e+01 -2.694699999999999918e+01 -6.841308999999999585e-02 -3.948686011945314878e-01
-4.126700000000000301e+01 2.791199999999999903e+01 -2.608099999999999952e+01 -2.811859000000000108e+00 -3.947931486275472190e-01
-4.125800000000000267e+01 3.842300000000000182e+01 -3.950300000000000011e+01 -2.954959000000000113e+00 -3.956299434727113540e-01
-4.125500000000000256e+01 3.305299999999999727e+01 -3.789900000000000091e+01 -4.866369999999999862e+00 -3.955730724272361609e-01
-4.125099999999999767e+01 6.075900000000000034e+01 -2.018599999999999994e+01 6.941174000000000177e+00 -1.306859931031848499e-01
-4.125099999999999767e+01 6.176599999999999824e+01 -2.119300000000000139e+01 9.062509999999999621e+00 -1.305572420974651371e-01
-4.125099999999999767e+01 6.202000000000000313e+01 -2.208699999999999974e+01 1.933552999999999855e+01 -1.286031342732957827e-01
-4.124900000000000233e+01 5.145300000000000296e+01 -4.647999999999999687e+00 -5.147838000000000136e+00 -6.206456031446157262e-02
-4.124499999999999744e+01 3.478699999999999903e+01 -3.903900000000000148e+01 -6.288127000000000244e+00 -3.956294268999301922e-01
-4.124199999999999733e+01 4.103699999999999903e+01 -3.620300000000000296e+01 -7.178096999999999950e-01 -3.952841996751603193e-01
-4.124099999999999966e+01 2.561100000000000065e+01 -3.607699999999999818e+01 -1.634325000000000028e+00 -3.956319568169076595e-01
-4.123599999999999710e+01 2.603900000000000148e+01 -3.237199999999999989e+01 3.884771999999999892e+00 -3.953904075391749262e-01
-4.123199999999999932e+01 5.979699999999999704e+01 -3.141500000000000181e+00 -2.577310999999999908e+00 3.371341725288742319e-01
-4.123100000000000165e+01 6.161899999999999977e+01 -1.613100000000000023e+01 1.484478999999999971e+01 8.798799438282266239e-02
-4.122999999999999687e+01 4.737299999999999756e+01 -4.960700000000000109e+00 -9.139079000000000619e+00 -2.678952215885083699e-01
-4.122999999999999687e+01 4.737299999999999756e+01 -4.021300000000000097e+00 -1.268258999999999936e+01 -2.638150944665097475e-01
-4.122299999999999898e+01 2.969800000000000040e+01 -1.753399999999999892e+01 1.054893999999999998e+01 -3.031016668533232372e-01
-4.121800000000000352e+01 2.952199999999999847e+01 -6.738299999999999734e+00 -4.260851999999999862e+00 -2.743669843707940981e-01
-4.121300000000000097e+01 6.659499999999999886e+01 -8.095900000000000318e+00 1.520766999999999980e+00 6.420797851653149702e-02
-4.120900000000000318e+01 4.250000000000000000e+01 -3.782000000000000028e+01 -2.291829999999999856e+01 -3.954547137238032528e-01
-4.120600000000000307e+01 6.605200000000000671e+01 -5.684000000000000163e+00 3.960206000000000004e-01 4.466663309501776868e-02
-4.119899999999999807e+01 6.153300000000000125e+01 -3.266999999999999904e+00 -3.022305999999999937e+00 3.558054275149285517e-01
-4.119700000000000273e+01 2.423600000000000065e+01 -3.515599999999999881e+01 -1.843337999999999921e+00 -3.956176070915352061e-01
-4.119400000000000261e+01 4.277300000000000324e+01 -3.073000000000000043e+01 9.721106000000000691e+00 -3.943875117555567522e-01
-4.117799999999999727e+01 5.182200000000000273e+01 -3.798000000000000043e+00 -3.463637999999999995e+00 -8.551388945459559299e-02
-4.117799999999999727e+01 5.287199999999999989e+01 -3.798000000000000043e+00 -5.565101000000000298e+00 2.034370815961635270e-01
-4.116700000000000159e+01 2.740700000000000003e+01 -1.083600000000000030e+01 -4.798308999999999713e+00 -2.731937800563024599e-01
-4.116700000000000159e+01 6.800000000000000000e+01 -1.518299999999999983e+01 9.353407000000000693e+00 8.545441122231664521e-02
-4.116400000000000148e+01 5.392699999999999960e+01 -2.395100000000000051e+01 -5.548276000000000430e+00 -2.748555091240011961e-01
-4.116400000000000148e+01 5.739800000000000324e+01 -2.471499999999999986e+01 -2.576327000000000034e+00 -3.939237378423471325e-01
-4.116100000000000136e+01 6.797499999999999432e+01 -1.013499999999999979e+01 3.881904999999999717e+01 7.522072188761301514e-02
-4.115999999999999659e+01 4.106900000000000261e+01 -3.503099999999999881e+01 1.037296999999999940e+02 -3.951301018817175992e-01
-4.115999999999999659e+01 6.152400000000000091e+01 -2.586199999999999832e+01 7.114667999999999992e+00 -3.951250066087190760e-01
-4.115800000000000125e+01 2.840200000000000102e+01 -9.943099999999999383e+00 -6.206102999999999703e+00 -2.734967015033254456e-01
-4.115800000000000125e+01 4.164099999999999824e+01 -3.148799999999999955e+01 2.115963999999999956e+01 -3.945654818810524489e-01
-4.115800000000000125e+01 4.390599999999999881e+01 -3.148799999999999955e+01 1.445261999999999958e+01 -3.945133678227156770e-01
-4.115100000000000335e+01 5.111399999999999721e+01 -2.169300000000000139e+01 -5.028298000000000378e+00 -7.466407878062962522e-02
-4.114999999999999858e+01 3.964800000000000324e+01 -3.838600000000000279e+01 -5.286596000000000295e+00 -3.955145972780240715e-01
-4.114999999999999858e+01 3.947599999999999909e+01 -3.499099999999999877e+00 -1.098325999999999958e+01 -2.954982403620051157e-01
-4.114699999999999847e+01 4.872500000000000142e+01 -2.297899999999999920e+01 1.084932000000000007e+00 -3.916774955490593402e-01
-4.114600000000000080e+01 4.123100000000000165e+01 -3.857999999999999829e+01 -8.056777000000000299e+00 -3.955256877374786484e-01
-4.114600000000000080e+01 4.217099999999999937e+01 -3.857999999999999829e+01 -1.075620999999999938e+01 -3.955250220415562623e-01
-4.114600000000000080e+01 4.217099999999999937e+01 -3.706000000000000227e+01 -3.109754999999999825e+01 -3.953664135246141020e-01
-4.113600000000000279e+01 6.695499999999999829e+01 -1.836700000000000088e+01 6.788378999999999941e+00 8.720174772258637574e-02
-4.113000000000000256e+01 4.127499999999999858e+01 -3.197700000000000031e+01 1.274884999999999913e+01 -3.946609420083225239e-01
-4.113000000000000256e+01 2.698100000000000165e+01 -2.202199999999999847e+01 6.245312000000000197e+00 -3.007831819386931338e-01
-4.112800000000000011e+01 5.853099999999999881e+01 -2.395700000000000074e+01 -2.837674000000000030e-01 -3.940264998052366296e-01
-4.112599999999999767e+01 3.396399999999999864e+01 -2.625900000000000123e+00 2.013914000000000115e+01 1.650274833334798574e-02
-4.112299999999999756e+01 6.166499999999999915e+01 -6.759100000000000108e+00 -1.819955999999999907e+00 1.897719786780163384e-02
-4.111999999999999744e+01 6.027000000000000313e+01 -2.502199999999999847e+01 1.541517999999999944e+01 -3.946738303929787639e-01
-4.111999999999999744e+01 6.277799999999999869e+01 -2.502199999999999847e+01 3.901104000000000127e+01 -3.956249881450433215e-01
-4.111999999999999744e+01 6.277799999999999869e+01 -2.406400000000000006e+01 6.856862999999999886e+01 -1.264912042197446351e-01
-4.111599999999999966e+01 3.021399999999999864e+01 -1.333500000000000085e+01 1.807001000000000079e+00 -2.730808058503212399e-01
-4.111399999999999721e+01 3.188800000000000168e+01 -3.841499999999999915e+01 -3.334299000000000124e+00 -3.956216412688163264e-01
-4.110499999999999687e+01 3.560499999999999687e+01 -2.592799999999999994e+00 6.242899999999999672e+00 2.051314895204132613e-02
-4.110300000000000153e+01 4.704599999999999937e+01 -6.566099999999999604e+00 -1.838761999999999830e+01 -2.772412253640706425e-01
-4.110300000000000153e+01 4.704599999999999937e+01 -5.700899999999999856e+00 -1.050951000000000057e+01 -2.734250610978282703e-01
-4.110000000000000142e+01 2.867699999999999960e+01 -3.980899999999999750e+01 -2.208718000000000181e+00 -3.957640869451621857e-01
-4.109799999999999898e+01 2.368400000000000105e+01 -3.345000000000000284e+01 -6.097223999999999755e+00 -3.955362422427108893e-01
-4.109000000000000341e+01 2.710200000000000031e+01 -1.164899999999999913e+01 -2.099922000000000111e+01 -2.730368514309357009e-01
-4.108800000000000097e+01 6.773000000000000398e+01 -1.719000000000000128e+01 2.545412999999999926e+00 8.643850367982783278e-02
-4.108700000000000330e+01 6.316899999999999693e+01 -3.652899999999999814e+00 -1.594929999999999959e+00 -1.614234874592894399e-03
-4.108400000000000318e+01 4.736399999999999721e+01 -3.151899999999999835e+01 2.163828999999999780e+00 -2.760106692809842222e-01
-4.108299999999999841e+01 3.832300000000000040e+01 -2.842299999999999827e+00 -4.053761000000000081e+01 3.007632080410579251e-02
-4.108200000000000074e+01 6.807099999999999795e+01 -1.114300000000000068e+01 2.102148000000000039e+01 7.806981234313872808e-02
-4.108200000000000074e+01 5.384499999999999886e+01 -5.479800000000000004e+00 -2.149711999999999890e+01 1.717063286888281526e-01
-4.106300000000000239e+01 6.668200000000000216e+01 -1.896900000000000119e+01 2.859116000000000213e+00 8.712316327784583314e-02
-4.106099999999999994e+01 2.744699999999999918e+01 -3.898599999999999710e+01 -2.217347000000000179e+00 -3.957385833846510659e-01
-4.106099999999999994e+01 2.744699999999999918e+01 -3.804599999999999937e+01 -2.594183999999999823e+00 -3.956863030665921932e-01
-4.106099999999999994e+01 2.744699999999999918e+01 -3.718099999999999739e+01 -2.579509999999999970e+00 -3.956359841692364543e-01
-4.104999999999999716e+01 2.685200000000000031e+01 -2.298000000000000043e+01 1.800019999999999953e+00 -3.003367579966077505e-01
-4.104500000000000171e+01 3.016100000000000136e+01 -1.724200000000000088e+01 1.047442999999999991e+01 -3.033297968173480075e-01
-4.104399999999999693e+01 2.824099999999999966e+01 -2.073100000000000165e+01 2.733273000000000064e+00 -3.010930226588014458e-01
-4.104200000000000159e+01 6.890399999999999636e+01 -1.348900000000000077e+01 -8.116044000000000480e+00 8.244103393114018963e-02
-4.103999999999999915e+01 5.847800000000000153e+01 -3.645099999999999785e+00 -2.538977000000000039e+00 3.227770053648330029e-01
-4.103999999999999915e+01 5.847800000000000153e+01 -7.528899999999999482e-01 8.226801999999999282e+00 3.254039684682733524e-01
-4.103799999999999670e+01 6.513700000000000045e+01 -4.482700000000000351e+00 1.443480000000000096e+00 2.776022814030395386e-02
-4.103699999999999903e+01 6.075800000000000267e+01 -3.369299999999999962e+00 -3.484052000000000149e+00 3.476248227092202936e-01
-4.103699999999999903e+01 2.472500000000000142e+01 -3.319800000000000040e+01 -9.607105000000000672e+00 -3.954802048768499279e-01
-4.102900000000000347e+01 6.916700000000000159e+01 -1.430700000000000038e+01 -9.616436999999999458e+00 8.327676133982800377e-02
-4.102600000000000335e+01 4.258700000000000330e+01 -3.698799999999999866e+00 4.666967999999999783e+00 -2.893731823007298365e-01
-4.102100000000000080e+01 6.294599999999999795e+01 -9.415100000000000691e+00 1.255070000000000086e+01 6.318116735975573550e-02
-4.101299999999999812e+01 4.097699999999999676e+01 -3.340400000000000347e+01 2.708809000000000022e+00 -3.948874316728974154e-01
-4.101299999999999812e+01 4.097699999999999676e+01 -3.253799999999999670e+01 4.182946000000000275e+00 -3.947514849936333281e-01
-4.100900000000000034e+01 4.741799999999999926e+01 -2.712999999999999901e+01 1.947631000000000157e+01 -3.933358468244808615e-01
-4.100900000000000034e+01 4.762700000000000244e+01 -2.786599999999999966e+01 3.965720000000000312e+01 -3.935733409983800390e-01
-4.100800000000000267e+01 2.777899999999999991e+01 -1.329100000000000037e+01 -5.291445000000000398e+00 -2.728480054510102337e-01
-4.100699999999999790e+01 4.079099999999999682e+01 -4.186899999999999622e+00 1.689328000000000074e+01 -2.941002111550390929e-01
-4.100500000000000256e+01 4.123799999999999955e+01 -3.420400000000000063e+01 5.359785000000000110e+01 -3.949987805468580526e-01
-4.100000000000000000e+01 2.747899999999999920e+01 -2.538100000000000023e+01 -8.739198999999999717e-01 -2.989309214765404343e-01
-4.099799999999999756e+01 3.192599999999999838e+01 -4.609600000000000364e+00 -1.027087000000000083e+00 1.316992573036394887e-02
-4.099600000000000222e+01 5.710300000000000153e+01 -2.724299999999999944e+00 -1.250232000000000010e+00 1.929966009687959783e-01
-4.099600000000000222e+01 5.710300000000000153e+01 -1.673699999999999966e+00 6.963918999999999748e+00 1.943643261937074984e-01
-4.099499999999999744e+01 6.127900000000000347e+01 -5.988599999999999923e+00 -1.334230000000000027e+00 5.696679525028145157e-04
-4.099499999999999744e+01 6.127900000000000347e+01 -4.405400000000000205e+00 -2.246731000000000034e+00 3.524928858015247135e-01
-4.099399999999999977e+01 5.111299999999999955e+01 -5.475999999999999979e+00 -8.133129999999999526e+00 -5.295803427197842694e-02
-4.098799999999999955e+01 6.498099999999999454e+01 -1.963800000000000168e+01 1.941541999999999990e-01 8.741050890998876277e-02
-4.098700000000000188e+01 6.776399999999999579e+01 -1.618700000000000117e+01 8.261708000000000496e+00 8.567286827945873318e-02
-4.097699999999999676e+01 3.435399999999999920e+01 -3.833899999999999864e+01 -7.175019999999999953e+00 -3.955608503883310534e-01
-4.097699999999999676e+01 6.128699999999999903e+01 -2.358299999999999841e+00 -1.623758000000000035e+00 3.522394664718302981e-01
-4.097500000000000142e+01 4.191700000000000159e+01 -3.775100000000000122e+00 5.421141999999999683e+00 -2.911847994631711067e-01
-4.097099999999999653e+01 4.455100000000000193e+01 -3.178600000000000136e+01 7.110262999999999778e+00 -3.945445668216420176e-01
-4.097099999999999653e+01 4.608500000000000085e+01 -3.178600000000000136e+01 4.297629999999999839e+00 -3.945424230216060812e-01
-4.096999999999999886e+01 5.564200000000000301e+01 -6.992700000000000138e+00 2.594648000000000110e+01 1.121414996594285868e-01
-4.095400000000000063e+01 2.983399999999999963e+01 -3.946600000000000108e+01 -3.992236000000000118e+00 -3.957148421319169884e-01
-4.094200000000000017e+01 3.053699999999999903e+01 -5.519300000000000317e+00 -3.959436000000000178e+00 1.126065400627612734e-02
-4.093999999999999773e+01 4.538300000000000267e+01 -3.261299999999999866e+00 -7.834124000000000088e+00 -2.754267235714780160e-01
-4.093999999999999773e+01 4.690299999999999869e+01 -3.261299999999999866e+00 -2.881208000000000169e+01 -2.651974724376695014e-01
-4.093900000000000006e+01 2.626200000000000045e+01 -2.942299999999999827e+01 -1.984444000000000097e+00 -3.951520508080862970e-01
-4.093900000000000006e+01 2.648900000000000077e+01 -3.169399999999999906e+01 2.713185999999999876e+00 -3.953030232299807878e-01
-4.093900000000000006e+01 2.648900000000000077e+01 -2.862399999999999878e+01 -1.192843000000000053e+01 -3.950790464796669621e-01
-4.093900000000000006e+01 2.669800000000000040e+01 -3.095799999999999841e+01 -1.404093000000000035e+00 -3.952404207596333374e-01
-4.092799999999999727e+01 2.905199999999999960e+01 -8.437699999999999534e+00 2.121715000000000018e+01 -2.739572224329928085e-01
-4.092799999999999727e+01 2.905199999999999960e+01 -7.498300000000000409e+00 -1.596607999999999983e+01 -2.741468173638847983e-01
-4.092399999999999949e+01 5.912100000000000222e+01 -1.054499999999999993e+01 1.485017999999999949e+00 6.273031035516542231e-02
-4.091299999999999670e+01 5.982699999999999818e+01 -4.468900000000000095e-01 7.310626999999999542e-01 3.386467207326003259e-01
-4.090999999999999659e+01 6.800300000000000011e+01 -1.196299999999999919e+01 3.116692000000000107e+01 7.944362451659323088e-02
-4.090999999999999659e+01 4.767999999999999972e+01 -2.625799999999999912e+01 -1.274218999999999991e+00 -3.930311958846841591e-01
-4.090699999999999648e+01 6.393299999999999983e+01 -3.934600000000000097e+00 -2.713980999999999755e-01 1.065235963692707892e-02
-4.089999999999999858e+01 6.242199999999999704e+01 -2.324200000000000088e+01 2.903286999999999907e+01 -1.280483397114503541e-01
-4.089600000000000080e+01 4.824699999999999989e+01 -7.559300000000000352e+00 -4.336668999999999841e+01 -2.755477726168447661e-01
-4.089600000000000080e+01 4.964699999999999847e+01 -7.559300000000000352e+00 -3.843137000000000114e+01 -2.703298347519831335e-01
-4.089600000000000080e+01 4.045900000000000318e+01 -3.863900000000000290e+01 -4.336045999999999623e+00 -3.955104316190040104e-01
-4.089600000000000080e+01 5.664000000000000057e+01 -9.269700000000000273e+00 3.882591000000000037e+01 -2.026091107031358918e-01
-4.089600000000000080e+01 5.684899999999999665e+01 -1.000600000000000023e+01 7.308030999999999722e+01 -1.956738904374827892e-01
-4.089000000000000057e+01 4.347299999999999898e+01 -3.078800000000000026e+01 1.392266000000000048e+01 -3.943492756704950475e-01
-4.088900000000000290e+01 6.678600000000000136e+01 -8.959199999999999164e+00 1.626875000000000071e+01 6.765013073025301360e-02
-4.088799999999999812e+01 2.748699999999999832e+01 -2.768400000000000105e+01 -1.182606999999999964e+01 -3.949335954794626069e-01
-4.088000000000000256e+01 4.829200000000000159e+01 -2.367899999999999849e+01 -9.835105000000000430e+00 -3.920012239234434426e-01
-4.087700000000000244e+01 6.307200000000000273e+01 -1.711100000000000065e+01 3.449152999999999913e+00 8.716374498413216598e-02
-4.087700000000000244e+01 6.328099999999999881e+01 -1.784700000000000131e+01 4.249781999999999726e+00 8.732481854685497646e-02
-4.087700000000000244e+01 6.353499999999999659e+01 -1.874099999999999966e+01 3.211675000000000058e+00 8.735688082507139796e-02
-4.087599999999999767e+01 5.235799999999999699e+01 -2.227899999999999991e+01 -5.855425999999999576e+00 -2.718618109639386882e-01
-4.087599999999999767e+01 5.326500000000000057e+01 -2.227899999999999991e+01 -7.391930000000000334e+00 -2.730401806536600362e-01
-4.087299999999999756e+01 2.693299999999999983e+01 -1.261500000000000021e+01 -8.272131999999999152e+00 -2.729061034714960754e-01
-4.087199999999999989e+01 2.476099999999999923e+01 -3.600600000000000023e+01 -1.635480999999999963e+00 -3.956274632169319849e-01
-4.086899999999999977e+01 3.313000000000000256e+01 -3.888799999999999812e+00 4.433209000000000177e-01 1.539293384960973600e-02
-4.086899999999999977e+01 6.120199999999999818e+01 -1.367699999999999916e+00 2.977602999999999867e+01 3.505739502396260088e-01
-4.086899999999999977e+01 6.887300000000000466e+01 -1.527200000000000024e+01 -5.213666000000000134e-01 8.390686484815632062e-02
-4.086800000000000210e+01 6.144800000000000040e+01 -5.264700000000000379e+00 -1.769819000000000031e+00 -8.644985478803905374e-03
-4.086299999999999955e+01 6.231900000000000261e+01 -1.629400000000000048e+01 1.135876999999999981e+01 8.660681723856419878e-02
-4.085699999999999932e+01 4.206000000000000227e+01 -3.076800000000000068e+01 2.403299000000000074e+00 -3.943826111354763464e-01
-4.085000000000000142e+01 6.428300000000000125e+01 -1.968299999999999983e+01 8.581815000000000415e-01 8.713664013757788096e-02
-4.083899999999999864e+01 6.230100000000000193e+01 -7.121299999999999741e+00 -2.013234999999999886e+00 2.993497575797256921e-02
-4.083800000000000097e+01 3.814800000000000324e+01 -3.978799999999999670e+01 -2.506798999999999999e+00 -3.956188369660259552e-01
-4.083599999999999852e+01 6.022899999999999920e+01 -3.632400000000000073e+00 -2.817212000000000049e+00 3.415995450154821755e-01
-4.083299999999999841e+01 4.375800000000000267e+01 -3.683499999999999996e+00 7.358829000000000065e+00 -2.845653876852772268e-01
-4.082699999999999818e+01 2.921600000000000108e+01 -9.365500000000000824e+00 5.367901999999999951e+00 -2.738170995830632726e-01
-4.082399999999999807e+01 6.074900000000000233e+01 -2.579700000000000060e+01 3.134682999999999886e+00 -3.948646808990506907e-01
-4.082399999999999807e+01 6.229899999999999949e+01 -2.579700000000000060e+01 6.082633000000000401e+00 -3.954009566788391217e-01
-4.082099999999999795e+01 3.235300000000000153e+01 -3.828199999999999648e+01 -4.381095000000000184e+00 -3.955811514660999006e-01
-4.081799999999999784e+01 5.356799999999999784e+01 -2.297899999999999920e+01 -3.297161000000000008e+00 -2.739145031029897037e-01
-4.081700000000000017e+01 5.387500000000000000e+01 -2.442999999999999972e+01 -3.146360000000000046e+00 -2.752004608267331620e-01
-4.081300000000000239e+01 2.280699999999999861e+01 -3.364500000000000313e+01 -2.448258000000000045e+00 -3.955588425787655016e-01
-4.081199999999999761e+01 4.794100000000000250e+01 -2.538500000000000156e+01 -2.301257000000000019e+01 -3.927050860015159350e-01
-4.081199999999999761e+01 4.816799999999999926e+01 -2.458599999999999852e+01 -1.788371000000000066e+01 -3.923894410710397351e-01
-4.081000000000000227e+01 3.116300000000000026e+01 -1.579299999999999926e+01 -9.924322999999999340e+00 -3.048171070821136253e-01
-4.081000000000000227e+01 3.116300000000000026e+01 -1.432099999999999973e+01 9.237268000000000256e+00 -3.067714338896565529e-01
-4.081000000000000227e+01 3.137199999999999989e+01 -1.505700000000000038e+01 1.800621000000000027e-01 -3.057256694358494453e-01
-4.081000000000000227e+01 2.407499999999999929e+01 -3.278600000000000136e+01 -6.584368999999999694e+00 -3.954657148096254460e-01
-4.080899999999999750e+01 4.173700000000000188e+01 -3.646999999999999886e+01 -1.472175000000000011e+01 -3.952669198174189602e-01
-4.080899999999999750e+01 4.994200000000000017e+01 -2.232000000000000028e+01 7.429556999999999967e-01 -7.516457027606490704e-02
-4.080799999999999983e+01 6.073299999999999699e+01 -1.618499999999999872e+01 8.215949000000000169e+00 8.549985165102599871e-02
-4.080400000000000205e+01 2.554799999999999827e+01 -3.276800000000000068e+01 9.500307999999999531e-01 -3.954060413172990063e-01
-4.079599999999999937e+01 4.794299999999999784e+01 -3.080900000000000105e+01 -4.676379999999999981e+00 -2.757295107613638718e-01
-4.079500000000000171e+01 5.932399999999999807e+01 -3.657399999999999984e+00 -2.798633999999999844e+00 3.320191793704739824e-01
-4.079500000000000171e+01 5.664099999999999824e+01 -7.953500000000000014e+00 5.518506999999999607e+00 1.216562810607533518e-01
-4.079500000000000171e+01 6.841500000000000625e+01 -1.272700000000000031e+01 1.142404999999999937e+01 8.044961283143506336e-02
-4.079099999999999682e+01 2.899800000000000111e+01 -1.780099999999999838e+01 6.409051999999999971e+00 -3.033317410768812117e-01
-4.078999999999999915e+01 3.566899999999999693e+01 -4.033100000000000307e+01 -8.236644000000000077e+00 -3.956774349374058142e-01
-4.078999999999999915e+01 3.660699999999999932e+01 -4.033100000000000307e+01 -1.447544000000000075e+01 -3.956687655512551305e-01
-4.078900000000000148e+01 2.640800000000000125e+01 -3.009499999999999886e+01 -7.600595000000000212e+00 -3.951819995013222675e-01
-4.078799999999999670e+01 4.799499999999999744e+01 -2.978600000000000136e+01 2.347912000000000177e+01 -2.749805977687696523e-01
-4.077600000000000335e+01 2.867399999999999949e+01 -2.003099999999999881e+01 5.224961999999999662e+00 -3.015535591529099890e-01
-4.077600000000000335e+01 2.867399999999999949e+01 -1.916600000000000037e+01 6.239506000000000441e+00 -3.022471887857765549e-01
-4.077100000000000080e+01 2.791700000000000159e+01 -3.974600000000000222e+01 -1.890327000000000091e+00 -3.957522030419983738e-01
-4.077100000000000080e+01 2.943700000000000117e+01 -3.974600000000000222e+01 -2.196193000000000062e+00 -3.957256734630720807e-01
-4.076200000000000045e+01 2.631099999999999994e+01 -3.647999999999999687e+01 -2.025939999999999852e+00 -3.956042048730692429e-01
-4.075999999999999801e+01 5.423199999999999932e+01 -2.523300000000000054e+01 -8.600744999999999640e-01 -2.761026078154298902e-01
-4.075999999999999801e+01 5.567799999999999727e+01 -2.603900000000000148e+01 1.394571999999999967e+01 -2.780944664456108661e-01
