-2.101899999999999835e+01 4.664999999999999858e+01 -4.209000000000000341e+01 -1.224162999999999890e+00 -1.646369393296091554e-01
-2.101500000000000057e+01 6.756799999999999784e+01 -2.756299999999999883e+01 -6.734792999999999807e+00 -3.212200614886421418e-02
-2.101300000000000168e+01 5.626299999999999812e+01 -1.559399999999999942e+01 1.046931999999999974e+01 -1.707976007104247684e-01
-2.101099999999999923e+01 4.092499999999999716e+01 -4.482200000000000273e+01 1.922368999999999994e+00 -1.375663793349272690e-01
-2.101099999999999923e+01 2.862699999999999889e+01 -2.908200000000000074e+01 -7.247819999999999929e+00 -1.033097172774013056e-01
-2.100799999999999912e+01 6.504600000000000648e+01 -2.318400000000000105e+01 -3.388924000000000092e+01 -3.646095029099187257e-01
-2.099899999999999878e+01 4.359799999999999898e+01 -1.729599999999999937e+01 1.641880000000000006e+00 1.030261873011749547e-02
-2.099599999999999866e+01 3.640400000000000347e+01 -4.422200000000000131e+01 1.976002000000000081e+01 -1.447424597640225574e-01
-2.099399999999999977e+01 3.034499999999999886e+01 -2.671900000000000119e+01 -3.652810000000000201e+01 3.921727268529327098e-03
-2.099399999999999977e+01 3.186499999999999844e+01 -2.671900000000000119e+01 -5.097872000000000270e+01 3.892101905909050273e-03
-2.099399999999999977e+01 5.172800000000000153e+01 -1.929500000000000171e+01 1.073884999999999934e+01 -9.925218368058502660e-02
-2.099399999999999977e+01 3.312199999999999989e+01 -3.124500000000000099e+01 7.853857999999999784e+00 -9.964531137847978948e-02
-2.099399999999999977e+01 3.398700000000000188e+01 -3.124500000000000099e+01 3.841381999999999852e+00 -9.986111175844361587e-02
-2.099299999999999855e+01 4.348100000000000165e+01 -4.466700000000000159e+01 -2.164520999999999873e+01 -3.641250465086404153e-01
-2.098799999999999955e+01 5.403099999999999881e+01 -1.247799999999999976e+01 1.872310999999999837e+01 -1.815424585698208193e-01
-2.098600000000000065e+01 5.734599999999999653e+01 -1.573700000000000010e+01 1.369774999999999920e+01 -1.687860955846345046e-01
-2.098400000000000176e+01 2.711799999999999855e+01 -3.982399999999999807e+01 8.593118000000000478e+00 -1.489894577929060937e-01
-2.097899999999999920e+01 4.553600000000000136e+01 -2.164499999999999957e+01 2.757388999999999868e+00 1.018293442520800882e-02
-2.097899999999999920e+01 4.553600000000000136e+01 -2.078000000000000114e+01 -8.818365999999999261e+00 1.062309773577119025e-02
-2.097899999999999920e+01 2.916799999999999926e+01 -4.633299999999999841e+01 3.268005000000000138e+01 -1.493420727086761657e-01
-2.097800000000000153e+01 4.585199999999999676e+01 -4.317699999999999960e+01 -5.093386000000000280e+01 -3.638602166029399898e-01
-2.097599999999999909e+01 6.715600000000000591e+01 -2.675499999999999901e+01 1.081281000000000070e+01 -2.990534173552631542e-02
-2.097599999999999909e+01 4.141700000000000159e+01 -4.500200000000000244e+01 1.699883000000000088e-01 -1.367151527695896207e-01
-2.097299999999999898e+01 3.789500000000000313e+01 -2.685900000000000176e+01 7.702795000000000059e+00 4.164161671964029983e-03
-2.097299999999999898e+01 3.789500000000000313e+01 -2.599299999999999855e+01 7.965823999999999572e+00 4.275628336641018948e-03
-2.097200000000000131e+01 4.047800000000000153e+01 -2.176999999999999957e+01 1.654391999999999996e+01 6.053655472397627760e-03
-2.096499999999999986e+01 6.637999999999999545e+01 -2.624699999999999989e+01 4.213123999999999647e+00 -3.311737547489086025e-02
-2.096099999999999852e+01 4.367999999999999972e+01 -9.195299999999999585e+00 -1.221057999999999977e+00 -2.462948591481575189e-01
-2.096099999999999852e+01 4.388900000000000290e+01 -9.931300000000000239e+00 -1.919280000000000097e+00 1.619502803447203307e-02
-2.096000000000000085e+01 6.684000000000000341e+01 -3.384499999999999886e+01 -2.568313999999999986e+00 -2.624213819152871330e-01
-2.096000000000000085e+01 6.704900000000000659e+01 -3.458100000000000307e+01 1.034619999999999962e+01 -2.602724037684995273e-01
-2.095899999999999963e+01 6.392499999999999716e+01 -2.064999999999999858e+01 1.446190999999999960e+01 -3.622929373809202214e-01
-2.095899999999999963e+01 6.666899999999999693e+01 -3.798799999999999955e+01 9.341295999999999822e+00 -2.531895406306490792e-01
-2.095400000000000063e+01 5.570799999999999841e+01 -8.352899999999999991e+00 -1.328556999999999988e+00 -1.634859952031604280e-01
-2.095200000000000173e+01 4.488400000000000034e+01 -2.246600000000000108e+01 -1.665607999999999933e+01 9.010997082447829570e-03
-2.094800000000000040e+01 2.829799999999999827e+01 -2.832199999999999918e+01 -1.237186999999999948e+01 -1.034580182577311547e-01
-2.093900000000000006e+01 2.970499999999999829e+01 -3.507099999999999795e+01 1.295885999999999960e+01 -1.440946924069042567e-01
-2.093900000000000006e+01 2.970499999999999829e+01 -3.226700000000000301e+01 -1.984609999999999985e+00 -9.632078460418587451e-02
-2.093799999999999883e+01 3.017099999999999937e+01 -3.683400000000000318e+01 6.878771999999999665e+00 -1.447283600270468096e-01
-2.093299999999999983e+01 3.945600000000000307e+01 -4.467600000000000193e+01 7.539448000000000150e+00 -1.403370041286351455e-01
-2.092599999999999838e+01 6.214999999999999858e+01 -4.147999999999999687e+01 1.318867999999999974e+01 3.164505975065532578e-02
-2.092599999999999838e+01 6.235900000000000176e+01 -4.074399999999999977e+01 1.271776000000000018e+00 -1.612927700991846625e-01
-2.092000000000000171e+01 2.853300000000000125e+01 -3.830700000000000216e+01 5.544767000000000223e+00 -1.469496691201076233e-01
-2.091799999999999926e+01 4.147999999999999687e+01 -2.325499999999999901e+01 -1.466414999999999935e+01 5.992744679715970510e-03
-2.091799999999999926e+01 4.288000000000000256e+01 -2.325499999999999901e+01 -2.061632000000000176e+01 6.900243845873575525e-03
-2.091499999999999915e+01 4.450999999999999801e+01 -4.760699999999999932e+00 1.065732999999999997e+01 -2.440563816460263047e-01
-2.091300000000000026e+01 2.885300000000000153e+01 -2.752100000000000080e+01 -2.227729000000000070e+01 -1.040858036021058003e-01
-2.089399999999999835e+01 5.054299999999999926e+01 -4.121299999999999741e+00 8.486128000000000782e+00 -3.499999999999999778e-01
-2.089300000000000068e+01 5.137500000000000000e+01 -2.070599999999999952e+01 3.769982000000000166e+00 -1.040627658825614421e-01
-2.089300000000000068e+01 5.277499999999999858e+01 -2.297100000000000009e+01 -2.179463000000000150e+01 -9.989180734074784573e-02
-2.089300000000000068e+01 5.277499999999999858e+01 -2.070599999999999952e+01 -2.811958000000000180e+00 -9.554692600851086293e-02
-2.089199999999999946e+01 2.966799999999999926e+01 -2.925499999999999901e+01 -9.828796999999999784e+00 -1.037272245148741917e-01
-2.088500000000000156e+01 5.150900000000000034e+01 -3.778399999999999981e+00 4.076386000000000287e+00 -3.500000000000000333e-01
-2.088299999999999912e+01 5.728099999999999881e+01 -4.256700000000000017e+01 3.129084000000000199e+00 -1.908012000807320641e-01
-2.087800000000000011e+01 5.162500000000000000e+01 -1.689399999999999835e+01 8.919503000000000625e+00 -9.666400510584323424e-02
-2.087300000000000111e+01 4.898400000000000176e+01 -4.008899999999999686e+00 5.650818000000000119e+00 -2.385624902192729768e-01
-2.086799999999999855e+01 6.666200000000000614e+01 -2.968900000000000006e+01 3.528027000000000157e+01 -2.510686640798868718e-01
-2.086799999999999855e+01 6.700700000000000500e+01 -2.890599999999999881e+01 -2.496734000000000009e+00 -2.455708191987391875e-01
-2.085800000000000054e+01 3.005199999999999960e+01 -3.576500000000000057e+01 8.758874999999999744e+00 -1.442009942326666350e-01
-2.085699999999999932e+01 5.539000000000000057e+01 -1.077500000000000036e+01 2.134753999999999863e+01 -1.723453818941078353e-01
-2.084799999999999898e+01 5.283500000000000085e+01 -4.166500000000000092e+00 -4.567618999999999652e+00 -3.499999999999999778e-01
-2.084799999999999898e+01 4.811800000000000210e+01 -4.173799999999999955e+01 1.980805000000000149e+01 -1.659801841050436988e-01
-2.084499999999999886e+01 4.349799999999999756e+01 -1.830999999999999961e+00 -2.436980999999999842e+00 -2.440922868167529902e-01
-2.084499999999999886e+01 4.372500000000000142e+01 -2.630100000000000104e+00 -7.599804999999999477e-01 -2.441291366454635681e-01
-2.084499999999999886e+01 4.372500000000000142e+01 -1.031900000000000039e+00 -2.174779000000000018e+00 -2.436827745713791293e-01
-2.084499999999999886e+01 4.501800000000000068e+01 -3.109999999999999987e-01 -2.842167999999999850e+01 -2.421784893659834625e-01
-2.084400000000000119e+01 3.001699999999999946e+01 -3.165500000000000114e+01 -1.692318999999999907e+00 -9.796171101345689525e-02
-2.084199999999999875e+01 3.499900000000000233e+01 -4.407099999999999795e+01 2.268575999999999837e+01 -1.464154536690531749e-01
-2.084100000000000108e+01 5.562199999999999989e+01 -7.365300000000000402e+00 -2.352859000000000034e+00 -3.499999999999999778e-01
-2.083500000000000085e+01 5.986999999999999744e+01 -1.879599999999999937e+01 1.416197000000000017e+01 -3.609656946897372709e-01
-2.083399999999999963e+01 2.698900000000000077e+01 -4.154599999999999937e+01 9.086778999999999940e+00 -1.498206141787230827e-01
-2.081599999999999895e+01 4.346500000000000341e+01 -2.285200000000000031e+01 -1.054887000000000086e+01 7.340286383438354538e-03
-2.080300000000000082e+01 4.302199999999999847e+01 -1.343999999999999950e+01 -9.874205999999999817e-01 9.127129904940443905e-02
-2.078699999999999903e+01 5.650099999999999767e+01 -3.551700000000000301e+01 -1.702056000000000013e+00 -1.712303561828713017e-01
-2.078699999999999903e+01 5.671000000000000085e+01 -3.625300000000000011e+01 -5.659003000000000227e+00 -1.711614393447439264e-01
-2.078699999999999903e+01 5.671000000000000085e+01 -3.478099999999999881e+01 1.979999000000000065e+00 -1.708515885572639836e-01
-2.078699999999999903e+01 5.790100000000000335e+01 -3.691700000000000159e+01 6.402571000000000012e+00 -1.697476119067374556e-01
-2.078699999999999903e+01 5.790100000000000335e+01 -3.411699999999999733e+01 5.293061999999999934e+00 1.125941503771960700e-02
-2.078200000000000003e+01 5.352600000000000335e+01 -1.557300000000000040e+01 1.153476999999999997e+01 -1.741691883901297366e-01
-2.077499999999999858e+01 3.629200000000000159e+01 -2.332400000000000162e+01 9.556573999999999458e+00 4.459587421332891419e-03
-2.077499999999999858e+01 3.654599999999999937e+01 -2.421799999999999997e+01 3.494329000000000018e+00 4.292174238397067007e-03
-2.077499999999999858e+01 3.654599999999999937e+01 -2.242999999999999972e+01 9.115852999999999540e+00 4.707736577354701066e-03
-2.077499999999999858e+01 3.755299999999999727e+01 -2.522500000000000142e+01 5.402898999999999674e+00 4.204380724903316810e-03
-2.076599999999999824e+01 5.915100000000000335e+01 -1.823199999999999932e+01 5.147234000000000087e+00 -3.611165756747259925e-01
-2.076200000000000045e+01 5.415999999999999659e+01 -1.805900000000000105e+01 4.351820000000000022e+00 -1.681721301430721960e-01
-2.076200000000000045e+01 4.906000000000000227e+01 -4.178000000000000114e+01 3.099441999999999808e+00 -1.667605918594062264e-01
-2.076099999999999923e+01 4.518299999999999983e+01 -1.996600000000000108e+01 -5.763208999999999804e+00 1.026374007273644050e-02
-2.075900000000000034e+01 4.178799999999999670e+01 -1.439400000000000013e+01 1.953589999999999938e+00 1.022671888636454349e-02
-2.075700000000000145e+01 5.381900000000000261e+01 -4.023700000000000188e+01 8.497495999999999938e+00 -1.744237852356736729e-01
-2.075700000000000145e+01 5.521900000000000119e+01 -4.023700000000000188e+01 7.872201999999999700e+00 -1.766010462753297428e-01
-2.075700000000000145e+01 4.772500000000000142e+01 -1.900600000000000067e+00 -3.456103999999999843e+01 -2.393061637175082912e-01
-2.075199999999999889e+01 3.721600000000000108e+01 -4.438000000000000256e+01 3.163740999999999914e+00 -1.437885184034543018e-01
-2.074599999999999866e+01 5.465899999999999892e+01 -1.633099999999999952e+01 1.033553000000000033e+01 -1.710245747211548983e-01
-2.074399999999999977e+01 4.188199999999999790e+01 -1.624500000000000099e+01 1.960031999999999996e+00 9.250471373573222397e-03
-2.074299999999999855e+01 5.409400000000000119e+01 -5.467299999999999827e+00 4.985381000000000284e+01 -3.499999999999999778e-01
-2.074200000000000088e+01 4.478999999999999915e+01 -1.812199999999999989e+01 3.803660999999999848e-01 9.365559393227924911e-02
-2.073699999999999832e+01 5.503900000000000148e+01 -6.612599999999999589e+00 8.053886999999999574e+00 -3.499999999999999778e-01
-2.073400000000000176e+01 6.051599999999999824e+01 -4.460699999999999932e+01 4.494148000000000032e+00 -2.820324943969055864e-01
-2.073300000000000054e+01 5.548599999999999710e+01 -9.733299999999999841e+00 4.692367000000000132e+01 -1.730323034894169776e-01
-2.072800000000000153e+01 6.587600000000000477e+01 -3.809199999999999875e+01 7.030704000000000065e+00 -2.544382969808950956e-01
-2.072100000000000009e+01 2.909700000000000131e+01 -2.832199999999999918e+01 -4.809953999999999752e+01 -1.038154747264509181e-01
-2.072100000000000009e+01 5.359799999999999898e+01 -1.317800000000000082e+01 1.138162999999999947e+01 -1.801840083105432644e-01
-2.071900000000000119e+01 3.727199999999999847e+01 -2.791900000000000048e+01 2.714551000000000158e+01 3.748235760428094560e-03
-2.071600000000000108e+01 6.316499999999999915e+01 -4.008800000000000097e+01 -1.483083000000000062e+01 -1.586302231011473274e-01
-2.071399999999999864e+01 2.685699999999999932e+01 -4.070900000000000318e+01 4.848990999999999829e+00 -1.498886619167805467e-01
-2.071000000000000085e+01 2.752899999999999991e+01 -3.893599999999999994e+01 6.189527000000000001e+00 -1.481067330351464040e-01
-2.070799999999999841e+01 4.022500000000000142e+01 -4.476400000000000290e+01 2.595530000000000115e+00 -1.389138827612311500e-01
-2.070799999999999841e+01 4.507999999999999829e+01 -1.902400000000000091e+01 -1.141333999999999982e+01 1.053405847431744188e-02
-2.070700000000000074e+01 5.967699999999999960e+01 -3.577300000000000324e+01 2.402001999999999882e+01 -1.666809764455044474e-01
-2.070599999999999952e+01 4.372099999999999653e+01 -6.817000000000000171e+00 -2.419719999999999871e+01 -2.453709419992719520e-01
-2.070400000000000063e+01 3.233500000000000085e+01 -2.841900000000000048e+01 -9.817583000000000482e+01 -1.056474963175546150e-01
-2.070400000000000063e+01 3.233500000000000085e+01 -2.747899999999999920e+01 -1.130320999999999998e+02 3.634549749261785367e-03
-2.070200000000000173e+01 5.339699999999999847e+01 -1.461500000000000021e+01 1.298235000000000028e+01 -1.766541265615264311e-01
-2.070200000000000173e+01 5.339699999999999847e+01 -1.374900000000000055e+01 1.221978000000000009e+01 -1.788285688545724617e-01
-2.069999999999999929e+01 5.165400000000000347e+01 -4.331600000000000250e+01 -3.189061999999999841e+00 -2.757989613967425924e-01
-2.069999999999999929e+01 5.294700000000000273e+01 -4.259499999999999886e+01 -9.164016999999999413e+00 -1.708742556242740240e-01
-2.069999999999999929e+01 5.317399999999999949e+01 -4.179599999999999937e+01 -1.176083999999999996e+01 -1.720873600543427195e-01
-2.069399999999999906e+01 4.337199999999999989e+01 -8.557299999999999685e+00 -4.758510000000000240e+00 -1.563684399666212810e-01
-2.068299999999999983e+01 4.274499999999999744e+01 -4.468900000000000006e+01 -4.810889000000000237e+01 -3.642241580391821776e-01
-2.068199999999999861e+01 3.008800000000000097e+01 -4.881199999999999761e+01 6.192066999999999766e+00 -1.490472624864020434e-01
-2.068199999999999861e+01 3.178800000000000026e+01 -4.881199999999999761e+01 1.277396000000000065e+01 -1.491648769863337665e-01
-2.067500000000000071e+01 3.147400000000000020e+01 -2.981500000000000128e+01 -9.783564999999999401e+00 -1.033749904524871033e-01
-2.066499999999999915e+01 3.110500000000000043e+01 -2.665599999999999881e+01 -8.328180999999999301e+01 3.720420171660237564e-03
-2.066000000000000014e+01 5.890699999999999648e+01 -4.377600000000000335e+01 3.748727999999999838e+00 -2.848630749988728672e-01
-2.065599999999999881e+01 4.485300000000000153e+01 -4.407699999999999818e+01 -1.194685999999999915e+01 -3.640282611044843852e-01
-2.065500000000000114e+01 5.845199999999999818e+01 -3.408200000000000074e+01 4.622523000000000160e+00 1.223880554287213977e-02
-2.065299999999999869e+01 6.134400000000000119e+01 -1.908800000000000097e+01 7.392957000000000001e+00 -3.606256631515351030e-01
-2.065299999999999869e+01 6.193299999999999983e+01 -4.369100000000000250e+01 1.342890000000000050e+01 -2.695644384716122111e-01
-2.065299999999999869e+01 6.218699999999999761e+01 -4.279699999999999704e+01 2.635961999999999961e+01 -2.690569643310145587e-01
-2.065099999999999980e+01 3.817000000000000171e+01 -2.104400000000000048e+01 1.640416000000000096e+01 5.299240175451616110e-03
-2.065099999999999980e+01 3.986999999999999744e+01 -2.104400000000000048e+01 1.874400999999999939e+01 5.779346965899307895e-03
-2.064799999999999969e+01 5.385799999999999699e+01 -1.646300000000000097e+01 1.354677000000000042e+01 -1.717937507107077655e-01
-2.064799999999999969e+01 4.695199999999999818e+01 -9.886700000000000488e-01 -9.598696000000000339e+00 -2.401591088069907065e-01
-2.064199999999999946e+01 3.163700000000000045e+01 -3.052400000000000091e+01 -1.467942999999999998e+01 -1.015042490826072452e-01
-2.064099999999999824e+01 5.026800000000000068e+01 -4.263000000000000256e+01 2.462810000000000166e+00 -1.670756909012046376e-01
-2.063700000000000045e+01 3.598100000000000165e+01 -2.964199999999999946e+01 -5.325112999999999985e+00 -1.061752681934911707e-01
-2.063599999999999923e+01 2.759100000000000108e+01 -4.189699999999999847e+01 7.843679999999999986e+00 -1.498609513322591569e-01
-2.062300000000000111e+01 4.180599999999999739e+01 -4.478799999999999670e+01 3.741765999999999842e-02 -3.642948388026316375e-01
-2.061599999999999966e+01 4.277000000000000313e+01 -4.285000000000000142e+01 -1.414728000000000030e+01 -3.641728955365498566e-01
-2.061499999999999844e+01 5.684799999999999898e+01 -4.186699999999999733e+01 4.511769000000000140e+00 -1.783759026838104833e-01
-2.061499999999999844e+01 5.996600000000000108e+01 -3.497899999999999920e+01 1.400877000000000017e+01 -2.637743649114193123e-01
-2.061400000000000077e+01 6.478799999999999670e+01 -2.490299999999999869e+01 -5.366239000000000203e+00 -4.114481246668515169e-02
-2.061100000000000065e+01 5.119299999999999784e+01 -1.846000000000000085e+01 1.303190999999999988e+01 -1.031935108552544389e-01
-2.061100000000000065e+01 5.119299999999999784e+01 -1.759400000000000119e+01 1.466065000000000040e+01 -1.018688495187478338e-01
-2.060999999999999943e+01 4.485499999999999687e+01 -5.959600000000000009e+00 2.868914999999999882e+00 -2.444910069844478395e-01
-2.060999999999999943e+01 4.485499999999999687e+01 -5.094400000000000261e+00 2.379655000000000076e+00 -2.442226735377332203e-01
-2.060600000000000165e+01 2.917299999999999827e+01 -4.313700000000000045e+01 9.559542000000000428e+00 -1.498472887456527292e-01
-2.060600000000000165e+01 3.469899999999999807e+01 -3.079299999999999926e+01 -2.304238000000000142e+01 -1.017836546295460554e-01
-2.060500000000000043e+01 2.981500000000000128e+01 -2.748000000000000043e+01 -1.147179000000000038e+01 -1.045734563610470624e-01
-2.060200000000000031e+01 6.346500000000000341e+01 -2.002400000000000091e+01 1.267633000000000010e+01 -3.615401301725021388e-01
-2.060000000000000142e+01 6.204899999999999949e+01 -4.191700000000000159e+01 3.468536000000000286e+01 3.049681238491885882e-02
-2.059700000000000131e+01 3.355499999999999972e+01 -3.173600000000000065e+01 1.790999000000000052e+01 -9.850670092746097173e-02
-2.059199999999999875e+01 6.650700000000000500e+01 -3.254399999999999693e+01 -3.577756000000000114e+01 -2.621963383785407276e-01
-2.059199999999999875e+01 6.683199999999999363e+01 -3.328099999999999881e+01 -1.310055000000000014e+01 -2.626181974039981659e-01
-2.058800000000000097e+01 6.476600000000000534e+01 -2.335300000000000153e+01 -3.360438000000000036e-01 -3.648386990540616326e-01
-2.058599999999999852e+01 4.615899999999999892e+01 -4.248599999999999710e+01 -5.236655999999999977e+00 -2.578136277500053253e-01
-2.057999999999999829e+01 6.413500000000000512e+01 -3.891599999999999682e+01 1.603583999999999898e+00 -2.558267667234698783e-01
-2.057499999999999929e+01 5.232500000000000284e+01 -1.921799999999999997e+01 3.530838999999999839e+00 -9.735540113654300720e-02
-2.056800000000000139e+01 4.332699999999999818e+01 -7.529399999999999871e+00 -1.196780000000000044e+01 -1.550924419012537914e-01
-2.056599999999999895e+01 4.310699999999999932e+01 -1.689900000000000091e+01 1.445314999999999905e+00 9.628539271997289470e-03
-2.056500000000000128e+01 4.738400000000000034e+01 -4.181000000000000227e+01 2.099816000000000127e+00 -1.652092228940869600e-01
-2.054899999999999949e+01 5.773400000000000176e+01 -4.279999999999999716e+01 7.003288999999999653e+00 -1.914908935971799397e-01
-2.054700000000000060e+01 6.202900000000000347e+01 -4.101899999999999835e+01 7.041947000000000401e+00 -1.623502819256953944e-01
-2.054299999999999926e+01 4.071699999999999875e+01 -4.473400000000000176e+01 5.570841999999999850e+00 -1.378053643507763382e-01
-2.054200000000000159e+01 5.290800000000000125e+01 -1.657300000000000040e+01 1.118546000000000085e+01 -8.822406131477462943e-02
-2.053900000000000148e+01 3.429899999999999949e+01 -4.412899999999999778e+01 2.852844999999999942e+01 -1.473789481878468588e-01
-2.053399999999999892e+01 3.633599999999999852e+01 -2.921000000000000085e+01 4.243566000000000393e+00 -1.078655760024122695e-01
-2.052700000000000102e+01 4.397500000000000142e+01 -4.398799999999999955e+01 -1.110060999999999964e+01 -3.641272613076678710e-01
-2.051999999999999957e+01 3.817000000000000171e+01 -4.471999999999999886e+01 9.019011000000000777e+00 -1.427333040438504286e-01
-2.051500000000000057e+01 4.309100000000000108e+01 -4.395799999999999841e+01 -2.710460000000000136e+01 -3.641984355041630872e-01
-2.051200000000000045e+01 5.455799999999999983e+01 -6.034200000000000230e+00 1.407704999999999984e+01 -3.500000000000000333e-01
-2.051200000000000045e+01 2.983299999999999841e+01 -2.832199999999999918e+01 -1.778153999999999968e+01 -1.041626501719777054e-01
-2.051000000000000156e+01 2.897299999999999898e+01 -3.764800000000000324e+01 8.099090000000000344e+00 -1.462200369552345558e-01
-2.050900000000000034e+01 5.952799999999999869e+01 -3.406600000000000250e+01 6.755662000000000056e+00 1.500664602170483954e-02
-2.050499999999999901e+01 4.968399999999999750e+01 -4.171700000000000408e+00 -3.436713000000000129e+00 -2.379761993488072880e-01
-2.050499999999999901e+01 5.682099999999999795e+01 -1.514100000000000001e+01 1.651395000000000124e+01 -1.719011300012622812e-01
-2.050199999999999889e+01 4.446900000000000119e+01 -1.733200000000000074e+01 4.393870999999999749e-01 1.054707040808754853e-02
-2.050000000000000000e+01 4.521699999999999875e+01 -4.337599999999999767e+01 -2.264221999999999824e+01 -3.639966990135589664e-01
-2.049800000000000111e+01 3.585799999999999699e+01 -4.373599999999999710e+01 2.727534999999999954e+01 -1.449414322058353854e-01
-2.048999999999999844e+01 5.338600000000000279e+01 -4.093699999999999761e+01 -1.811865999999999977e+00 -1.732889600938991304e-01
-2.048799999999999955e+01 6.281499999999999773e+01 -1.973400000000000176e+01 1.928473999999999933e+01 -3.611094197595853816e-01
-2.048699999999999832e+01 5.078300000000000125e+01 -3.855199999999999960e+00 6.918896000000000157e+00 -3.499999999999999778e-01
-2.048600000000000065e+01 6.748799999999999955e+01 -3.507699999999999818e+01 1.061278999999999968e+02 -2.584840072421649704e-01
-2.048600000000000065e+01 6.771899999999999409e+01 -3.589200000000000301e+01 1.197438999999999965e+02 -2.556880276561536158e-01
-2.048499999999999943e+01 4.098899999999999721e+01 -2.285800000000000054e+01 1.031123999999999974e+01 5.304165746474910105e-03
-2.048499999999999943e+01 4.217999999999999972e+01 -2.352199999999999847e+01 -7.923610000000000042e+00 5.785408067699921754e-03
-2.048300000000000054e+01 5.407699999999999818e+01 -1.727299999999999969e+01 1.218260000000000076e+01 -1.697813992555179674e-01
-2.048100000000000165e+01 3.053999999999999915e+01 -2.979500000000000171e+01 -2.751619999999999955e+00 -1.031584916738593344e-01
-2.046099999999999852e+01 5.819599999999999795e+01 -1.606200000000000117e+01 1.363261999999999929e+01 -1.663462977032418022e-01
-2.046099999999999852e+01 5.067499999999999716e+01 -2.183800000000000097e+01 -3.911798999999999804e+00 -1.113422471408962861e-01
-2.046099999999999852e+01 5.088400000000000034e+01 -2.257400000000000162e+01 -1.998774999999999835e+01 1.837052123805274495e-02
-2.046099999999999852e+01 5.088400000000000034e+01 -2.110200000000000031e+01 9.905566000000000093e-01 -1.094848511642787098e-01
-2.046099999999999852e+01 5.207500000000000284e+01 -2.323799999999999955e+01 -1.216881000000000057e+01 -1.062593434290223932e-01
-2.046099999999999852e+01 5.207500000000000284e+01 -2.043799999999999883e+01 -2.707000999999999852e-02 -1.018418357355145715e-01
-2.046099999999999852e+01 5.326599999999999824e+01 -2.257400000000000162e+01 -1.893518999999999863e+01 -9.833504151553798533e-02
-2.046099999999999852e+01 5.326599999999999824e+01 -2.110200000000000031e+01 -7.616064999999999863e+00 -9.518191574356749118e-02
-2.046099999999999852e+01 5.347500000000000142e+01 -2.183800000000000097e+01 -5.077252999999999794e+00 -9.537142042476007275e-02
-2.045400000000000063e+01 5.451899999999999835e+01 -4.017900000000000205e+01 1.040827999999999953e+01 -1.757174198602662885e-01
-2.045200000000000173e+01 4.563799999999999812e+01 -1.801999999999999957e+01 -7.916205999999999854e+00 9.477722245615791130e-02
-2.045200000000000173e+01 3.069200000000000017e+01 -3.057799999999999940e+01 -5.212818000000000396e+00 -1.011603808733454873e-01
-2.045200000000000173e+01 3.683899999999999864e+01 -2.861899999999999977e+01 2.040222999999999942e+01 3.427275582566191494e-03
-2.044200000000000017e+01 4.354500000000000171e+01 -4.308400000000000318e+01 -1.744901000000000124e+01 -3.641466319608110402e-01
-2.044099999999999895e+01 3.087699999999999889e+01 -2.926999999999999957e+01 -1.031828999999999930e+01 -1.042550466473086412e-01
-2.044099999999999895e+01 6.586700000000000443e+01 -3.109600000000000009e+01 -4.130435000000000301e+00 -2.606345919074662953e-01
-2.044099999999999895e+01 6.607599999999999341e+01 -3.183200000000000074e+01 -3.826100999999999885e+01 -2.621900415199541201e-01
-2.044099999999999895e+01 6.607599999999999341e+01 -3.035999999999999943e+01 3.480675000000000185e+00 -2.563485415189291627e-01
-2.044000000000000128e+01 5.924399999999999977e+01 -3.647299999999999898e+01 1.145409000000000077e+01 -1.676663795438717297e-01
-2.043799999999999883e+01 6.030199999999999960e+01 -1.928699999999999903e+01 1.762172999999999945e+01 -3.609800173588547656e-01
-2.043799999999999883e+01 3.315800000000000125e+01 -4.498700000000000188e+01 1.058398000000000039e+01 -1.497373129900350097e-01
-2.043400000000000105e+01 6.477500000000000568e+01 -2.097500000000000142e+01 1.539464000000000077e+01 -3.629739159909336488e-01
-2.042099999999999937e+01 6.130199999999999960e+01 -4.455400000000000205e+01 7.975647999999999627e+00 -2.833393254778420745e-01
-2.042000000000000171e+01 4.833299999999999841e+01 -3.499899999999999789e+00 6.413302999999999976e+00 -2.397803413250503279e-01
-2.041900000000000048e+01 5.879899999999999949e+01 -1.838899999999999935e+01 3.850166999999999717e+01 -3.613890284749644022e-01
-2.041600000000000037e+01 5.234400000000000119e+01 -3.769899999999999807e+00 3.541462000000000110e+00 -3.500000000000000888e-01
-2.040700000000000003e+01 4.203399999999999892e+01 -4.285000000000000142e+01 -1.263629000000000069e+01 -3.642418095577704684e-01
-2.039900000000000091e+01 6.494799999999999329e+01 -2.200400000000000134e+01 -1.306373999999999924e+00 -3.639068927396078013e-01
-2.039699999999999847e+01 6.763700000000000045e+01 -3.660199999999999676e+01 2.637096000000000018e+01 -2.540065378870866031e-01
-2.039399999999999835e+01 4.533500000000000085e+01 -1.732000000000000028e+01 1.468938999999999939e-01 9.447677729540447655e-02
-2.038800000000000168e+01 4.342000000000000171e+01 -1.270899999999999963e+01 -4.899301000000000350e+00 1.263496083603622179e-02
-2.038500000000000156e+01 6.210099999999999909e+01 -1.916799999999999926e+01 9.046424000000000021e+00 -3.605618096274290640e-01
-2.038100000000000023e+01 2.899800000000000111e+01 -3.366899999999999693e+01 3.966842999999999897e+00 -8.923724663293533532e-02
-2.038100000000000023e+01 2.925199999999999889e+01 -3.456300000000000239e+01 6.911124000000000045e+00 -1.442040815724019986e-01
-2.038100000000000023e+01 2.925199999999999889e+01 -3.277499999999999858e+01 7.174530999999999992e+00 -9.438170979018953299e-02
-2.037500000000000000e+01 4.425800000000000267e+01 -6.012899999999999912e-01 -1.623779000000000039e+01 -2.436110146570336921e-01
-2.037399999999999878e+01 3.207000000000000028e+01 -3.122400000000000020e+01 -1.581633000000000067e+01 -9.982624173255622013e-02
-2.037399999999999878e+01 4.983500000000000085e+01 -4.192999999999999972e+01 1.672788999999999859e+01 -1.672877951971252219e-01
-2.036499999999999844e+01 4.862700000000000244e+01 -4.128900000000000148e+01 1.193154999999999966e+01 -1.667251538645152520e-01
-2.036199999999999832e+01 4.426599999999999824e+01 -2.269600000000000151e+01 -2.148814000000000135e+01 7.437192880419838184e-03
-2.036100000000000065e+01 6.512699999999999534e+01 -2.575400000000000134e+01 -1.541414999999999935e+01 -4.156207987976610896e-02
-2.036100000000000065e+01 5.910199999999999676e+01 -1.908899999999999864e+01 2.873939000000000021e+01 -3.615269321914718614e-01
-2.035699999999999932e+01 2.956299999999999883e+01 -4.796200000000000330e+01 4.723573000000000022e+00 -1.492476619932839310e-01
-2.035699999999999932e+01 3.231300000000000239e+01 -4.796200000000000330e+01 2.919166999999999845e+01 -1.494700849046837754e-01
-2.034900000000000020e+01 4.366599999999999682e+01 -1.098600000000000065e+01 -2.281724999999999781e+00 1.447522383422165937e-02
-2.034900000000000020e+01 5.422599999999999909e+01 -1.583999999999999986e+01 1.231358999999999959e+01 -1.729733595591055884e-01
-2.034900000000000020e+01 5.509199999999999875e+01 -1.583999999999999986e+01 1.246753999999999962e+01 -1.719245530703632230e-01
-2.034900000000000020e+01 4.233700000000000330e+01 -4.214999999999999858e+01 -7.142063000000000272e+00 -2.545165046462517511e-01
-2.034900000000000020e+01 4.320199999999999818e+01 -4.214999999999999858e+01 -7.060726999999999975e+00 -2.551810149482707790e-01
-2.034299999999999997e+01 4.442199999999999704e+01 -6.659600000000000186e+00 -1.743253999999999948e+01 -2.452775441630128950e-01
-2.033899999999999864e+01 2.873999999999999844e+01 -4.243699999999999761e+01 7.243021999999999849e+00 -1.499465295209826965e-01
-2.033500000000000085e+01 4.806600000000000250e+01 -2.688099999999999934e+00 6.088394000000000084e+00 -2.397798757061362918e-01
-2.033500000000000085e+01 3.246399999999999864e+01 -4.696900000000000119e+01 1.706078000000000117e+01 -1.496668493997005689e-01
-2.033299999999999841e+01 5.845100000000000051e+01 -1.709900000000000020e+01 2.428300000000000125e+01 -1.622773097298158829e-01
-2.032999999999999829e+01 5.259400000000000119e+01 -1.692699999999999960e+01 9.330686999999999287e+00 -9.243167315854831922e-02
-2.032999999999999829e+01 5.346000000000000085e+01 -1.832700000000000173e+01 7.108269000000000393e-02 -8.798253250106977119e-02
-2.032799999999999940e+01 6.512300000000000466e+01 -3.837899999999999778e+01 3.307563000000000031e+00 -2.552125817233542593e-01
-2.032700000000000173e+01 2.911799999999999855e+01 -4.619200000000000017e+01 1.918263999999999925e+01 -1.495076716387487570e-01
-2.032700000000000173e+01 2.937199999999999989e+01 -4.529800000000000182e+01 1.777941999999999823e+01 -1.496545698029521088e-01
-2.032700000000000173e+01 2.958099999999999952e+01 -4.456199999999999761e+01 8.746515999999999735e+00 -1.497689061627589246e-01
-2.032300000000000040e+01 4.747699999999999676e+01 -1.838700000000000001e+00 3.351487000000000105e+00 -2.402154987494158345e-01
-2.032000000000000028e+01 4.354399999999999693e+01 -1.180199999999999960e+01 -3.286932999999999883e+00 1.355462177921098674e-02
-2.031800000000000139e+01 5.720100000000000051e+01 -3.664999999999999858e+01 -2.064930000000000021e+01 -1.710005434419267778e-01
-2.031800000000000139e+01 4.599300000000000210e+01 -7.118200000000000083e-01 -8.150473999999999819e+01 -2.417923213154214435e-01
-2.031500000000000128e+01 6.751000000000000512e+01 -2.786599999999999966e+01 1.028291000000000066e+00 -3.321303271799017770e-02
-2.031400000000000006e+01 4.500000000000000000e+01 -4.523399999999999643e+00 7.995186000000000348e+00 -2.442647604343687051e-01
-2.031299999999999883e+01 3.093799999999999883e+01 -4.888300000000000267e+01 2.072804000000000002e+01 -1.491896015039455015e-01
-2.030799999999999983e+01 6.477899999999999636e+01 -2.271499999999999986e+01 -3.710297000000000178e+00 -3.642823531996185471e-01
-2.030499999999999972e+01 4.472599999999999909e+01 -3.681999999999999940e+00 -1.067461999999999911e+00 -2.442349808111476395e-01
-2.029899999999999949e+01 6.270499999999999829e+01 -1.908599999999999852e+01 3.977908999999999917e+00 -3.604706777073409252e-01
-2.029799999999999827e+01 6.367900000000000205e+01 -3.965400000000000347e+01 3.528208999999999929e+00 -1.565967572188487200e-01
-2.029500000000000171e+01 4.233700000000000330e+01 -4.392900000000000205e+01 -4.118431000000000353e+01 -3.642758880540045152e-01
-2.029400000000000048e+01 3.425500000000000256e+01 -3.167800000000000082e+01 -8.868005000000000138e+00 -9.902372273182666329e-02
-2.029100000000000037e+01 5.392300000000000182e+01 -1.514000000000000057e+01 1.196603999999999957e+01 -1.751792692750823444e-01
-2.028999999999999915e+01 3.262500000000000000e+01 -4.632200000000000273e+01 1.580715999999999966e+01 -1.498013555447736400e-01
-2.028800000000000026e+01 5.429800000000000182e+01 -1.291099999999999959e+01 1.773245000000000005e+01 -1.813060948523589344e-01
-2.028099999999999881e+01 4.230100000000000193e+01 -1.385299999999999976e+01 -1.004987000000000075e+00 1.047508908856324347e-02
-2.028099999999999881e+01 3.046699999999999875e+01 -3.115700000000000003e+01 -1.149019000000000013e+01 -9.965392199090773728e-02
-2.028000000000000114e+01 6.246099999999999852e+01 -4.031900000000000261e+01 -2.803625999999999951e+00 -1.607379334149656169e-01
-2.028000000000000114e+01 3.703099999999999881e+01 -2.187099999999999866e+01 7.754950000000000010e+00 4.492273147214860714e-03
-2.027899999999999991e+01 4.559400000000000119e+01 -2.194800000000000040e+01 3.214783000000000168e+00 9.035814193357825930e-03
-2.027400000000000091e+01 2.925600000000000023e+01 -4.707200000000000273e+01 1.324526999999999965e+01 -1.493945291158218780e-01
-2.027299999999999969e+01 3.795400000000000063e+01 -2.569000000000000128e+01 5.282962000000000380e+00 3.719170205875051323e-03
-2.027299999999999969e+01 3.816299999999999670e+01 -2.642599999999999838e+01 4.620885999999999605e+00 3.618375583691864437e-03
-2.027100000000000080e+01 5.376299999999999812e+01 -1.762699999999999889e+01 9.069587999999999539e+00 -8.401351350010100028e-02
-2.026500000000000057e+01 6.611299999999999955e+01 -2.667899999999999849e+01 3.363099999999999978e-01 -3.709877120734104972e-02
-2.026300000000000168e+01 4.240699999999999648e+01 -1.684100000000000108e+01 1.864055999999999935e+00 8.755933117294870463e-03
-2.026099999999999923e+01 4.362100000000000222e+01 -9.498699999999999477e+00 -1.413359999999999950e+00 -1.549375741653625238e-01
-2.026000000000000156e+01 4.373199999999999932e+01 -1.029599999999999937e+01 -1.467627000000000015e+00 1.507815989551614978e-02
-2.026000000000000156e+01 6.710699999999999932e+01 -3.427799999999999869e+01 1.926808999999999994e+00 -2.618407514268378256e-01
-2.025499999999999901e+01 4.437299999999999756e+01 -4.335099999999999909e+01 -5.384929999999999950e+01 -3.641107106507289748e-01
-2.025000000000000000e+01 3.714200000000000301e+01 -2.469900000000000162e+01 6.007184999999999775e+00 3.804443974215161034e-03
-2.024599999999999866e+01 3.272599999999999909e+01 -4.550200000000000244e+01 1.582382999999999917e+01 -1.499474455038524723e-01
-2.024500000000000099e+01 4.581600000000000250e+01 -2.119099999999999895e+01 -1.149839999999999973e+00 9.647639965341042734e-03
-2.024299999999999855e+01 5.760199999999999676e+01 -3.406099999999999994e+01 4.577974000000000210e+00 9.988252631704507695e-03
-2.023400000000000176e+01 3.063500000000000156e+01 -2.870899999999999963e+01 -1.244839999999999947e+01 -1.043523030612432123e-01
-2.023400000000000176e+01 3.063500000000000156e+01 -2.718900000000000006e+01 -3.503855999999999682e+01 -1.051199262945250457e-01
-2.023400000000000176e+01 3.157499999999999929e+01 -2.870899999999999963e+01 -3.783509999999999707e+01 -1.049040823666526345e-01
-2.023400000000000176e+01 3.157499999999999929e+01 -2.718900000000000006e+01 -1.026915000000000049e+02 3.399597481350899973e-03
-2.023000000000000043e+01 5.089399999999999835e+01 -4.302600000000000335e+01 1.858463999999999894e+00 -1.672300750792930502e-01
-2.023000000000000043e+01 5.241400000000000148e+01 -4.302600000000000335e+01 -6.938329000000000413e+00 -1.694825733012069457e-01
-2.022899999999999920e+01 5.726899999999999835e+01 -4.204699999999999704e+01 5.445808999999999678e+00 -1.794250130332404602e-01
-2.022800000000000153e+01 4.561399999999999721e+01 -1.949599999999999866e+01 -2.550428000000000139e+01 1.026928113205102279e-02
-2.022500000000000142e+01 3.782600000000000051e+01 -2.733800000000000097e+01 7.655372999999999983e+00 3.419007901254397883e-03
-2.022100000000000009e+01 5.860099999999999909e+01 -1.788100000000000023e+01 2.158733000000000146e+01 -1.597362401045998304e-01
-2.021900000000000119e+01 4.103199999999999648e+01 -1.591999999999999993e+01 1.903548000000000018e+00 8.304102580080316084e-03
-2.021900000000000119e+01 4.103199999999999648e+01 -1.486999999999999922e+01 2.140375000000000139e+00 8.881744269390963106e-03
-2.021799999999999997e+01 6.644199999999999307e+01 -3.753099999999999881e+01 1.348743999999999943e+01 -2.544281627639017884e-01
-2.021099999999999852e+01 3.534599999999999653e+01 -3.012500000000000000e+01 -1.320772999999999975e+01 -1.045854350027304591e-01
-2.021099999999999852e+01 5.379399999999999693e+01 -1.418200000000000038e+01 1.069023999999999930e+01 -1.779728622888488709e-01
-2.021000000000000085e+01 4.401800000000000068e+01 -4.261699999999999733e+01 -2.936395999999999873e+01 -2.550904082333561029e-01
-2.020700000000000074e+01 5.357699999999999818e+01 -4.883200000000000429e+00 4.518670999999999793e+01 -3.499999999999999778e-01
-2.020100000000000051e+01 4.350000000000000000e+01 -7.926499999999999879e+00 -1.196780000000000044e+01 -1.559647709466497612e-01
-2.019500000000000028e+01 3.655799999999999983e+01 -4.379399999999999693e+01 2.503375000000000128e+01 -1.440686841990255207e-01
-2.019399999999999906e+01 6.551399999999999579e+01 -2.649800000000000111e+01 -2.254142999999999830e+01 -4.189259509940190807e-02
-2.018700000000000117e+01 5.641199999999999903e+01 -3.567300000000000182e+01 -6.939238999999999713e+00 -1.717987450202404787e-01
-2.018700000000000117e+01 5.641199999999999903e+01 -3.480700000000000216e+01 2.619345000000000034e+00 -1.715882629164888484e-01
-2.017800000000000082e+01 5.189300000000000068e+01 -1.872700000000000031e+01 1.045672000000000068e+01 -1.016409961293027048e-01
-2.017800000000000082e+01 5.189300000000000068e+01 -1.732700000000000173e+01 1.362570999999999977e+01 -9.921526014481767131e-02
-2.017800000000000082e+01 5.275800000000000267e+01 -1.872700000000000031e+01 4.320964999999999945e-01 -9.539996580806145432e-02
-2.017099999999999937e+01 3.030600000000000094e+01 -2.794900000000000162e+01 -4.623364999999999725e+01 -1.045269893357982233e-01
-2.017099999999999937e+01 3.190399999999999991e+01 -2.794900000000000162e+01 -6.819714999999999350e+01 -1.055113893488321131e-01
-2.017099999999999937e+01 3.359100000000000108e+01 -4.428699999999999903e+01 1.566635999999999918e+01 -1.484486740133423299e-01
-2.017000000000000171e+01 6.054299999999999926e+01 -4.482900000000000063e+01 4.131776000000000337e+00 -2.829896406598706449e-01
-2.016799999999999926e+01 6.706499999999999773e+01 -2.921000000000000085e+01 1.662484999999999857e+01 -2.481748769167080315e-01
-2.015399999999999991e+01 4.664999999999999858e+01 -4.209000000000000341e+01 -1.453751999999999933e+00 -1.642186203428922797e-01
-2.014999999999999858e+01 3.945600000000000307e+01 -4.502100000000000080e+01 4.313556000000000168e+00 -1.408142508199717036e-01
-2.013599999999999923e+01 5.597099999999999653e+01 -1.521199999999999974e+01 1.248888999999999960e+01 -1.730029466693448204e-01
-2.013599999999999923e+01 5.767099999999999937e+01 -1.521199999999999974e+01 1.067098999999999975e+01 -1.708305274713031729e-01
-2.013500000000000156e+01 6.100200000000000244e+01 -1.922899999999999920e+01 1.275768000000000058e+01 -3.605978077041841479e-01
-2.013400000000000034e+01 2.679299999999999926e+01 -4.034899999999999665e+01 3.177156999999999787e+00 -1.497370293037783018e-01
-2.013400000000000034e+01 2.704700000000000060e+01 -4.124300000000000210e+01 6.067872000000000376e+00 -1.499784409484893888e-01
-2.013400000000000034e+01 2.704700000000000060e+01 -3.945499999999999829e+01 6.449616999999999933e+00 -1.488824643145480464e-01
-2.012999999999999901e+01 6.215800000000000125e+01 -4.325300000000000011e+01 1.753297999999999845e+01 -2.704849847419617537e-01
-2.012999999999999901e+01 3.272399999999999665e+01 -3.179500000000000171e+01 1.854733999999999980e+02 -9.845048843771683766e-02
-2.012699999999999889e+01 4.585000000000000142e+01 -2.015299999999999869e+01 -1.081201000000000079e+01 1.006845628156853925e-02
-2.012600000000000122e+01 3.754399999999999693e+01 -2.140099999999999980e+01 8.339810999999999197e+00 4.565066903407678962e-03
-2.012600000000000122e+01 3.902000000000000313e+01 -2.071900000000000119e+01 1.698692000000000135e+01 5.101137842371053499e-03
-2.012600000000000122e+01 4.046600000000000108e+01 -2.152499999999999858e+01 2.777677999999999869e+01 5.218894268997868215e-03
-2.012399999999999878e+01 6.036200000000000188e+01 -3.454699999999999704e+01 1.820458999999999961e+01 -2.646332443352257813e-01
-2.012199999999999989e+01 5.918900000000000006e+01 -4.405400000000000205e+01 5.773284000000000304e+00 -2.858587704210863167e-01
-2.012000000000000099e+01 5.158899999999999864e+01 -1.802700000000000102e+01 1.448671000000000042e+01 -1.028055018556438965e-01
-2.011700000000000088e+01 4.405700000000000216e+01 -7.250700000000000145e+00 -3.334062999999999732e+01 -1.550773562867393263e-01
-2.011700000000000088e+01 2.940599999999999881e+01 -4.369800000000000040e+01 7.440152000000000321e+00 -1.499083350836916684e-01
-2.011199999999999832e+01 5.909499999999999886e+01 -3.357500000000000284e+01 8.648524999999999352e+00 1.042149539667310693e-02
-2.010999999999999943e+01 3.890699999999999648e+01 -4.500200000000000244e+01 6.332660999999999873e+00 -1.418509881859352784e-01
-2.010999999999999943e+01 4.001700000000000301e+01 -4.500200000000000244e+01 1.161456000000000088e+01 -1.396364904441557420e-01
-2.010900000000000176e+01 6.425000000000000000e+01 -2.012500000000000000e+01 2.311276000000000153e+01 -3.618360910877094772e-01
-2.010699999999999932e+01 3.496800000000000352e+01 -4.375399999999999778e+01 5.089296999999999827e+01 -1.461909903032158897e-01
-2.010500000000000043e+01 4.403699999999999903e+01 -1.684100000000000108e+01 2.367016000000000120e-01 9.960400645110351753e-03
-2.010300000000000153e+01 4.564999999999999858e+01 -4.288499999999999801e+01 -8.436249999999999361e+00 -2.563702665721371843e-01
-2.009100000000000108e+01 5.304399999999999693e+01 -1.782700000000000173e+01 1.429575999999999958e+01 -9.173174626435524892e-02
-2.008500000000000085e+01 2.998199999999999932e+01 -3.192299999999999827e+01 -3.935518000000000072e+00 -9.764232595178115592e-02
-2.008500000000000085e+01 4.378799999999999670e+01 -2.300699999999999967e+00 -9.416731999999999880e-01 -2.448585854045600418e-01
-2.008500000000000085e+01 4.378799999999999670e+01 -1.361299999999999955e+00 -1.327096999999999971e+00 -2.445986096322108061e-01
-2.008099999999999952e+01 5.568500000000000227e+01 -8.634100000000000108e+00 -1.667678000000000083e+01 -1.696907282169963505e-01
-2.008099999999999952e+01 5.568500000000000227e+01 -7.035899999999999821e+00 -2.769559999999999889e+01 -3.499999999999999778e-01
-2.008099999999999952e+01 5.591199999999999903e+01 -7.834999999999999964e+00 -1.339779000000000053e+01 -1.624168826069942451e-01
-2.007700000000000173e+01 5.531900000000000261e+01 -1.203599999999999959e+01 1.748384000000000071e+01 1.266530378874830901e-02
-2.007700000000000173e+01 5.839300000000000068e+01 -4.321000000000000085e+01 9.526730999999999838e+00 -1.923114378754675058e-01
-2.007100000000000151e+01 4.514900000000000091e+01 -5.977699999999999569e+00 1.400375000000000014e+01 -2.448943183167658633e-01
-2.007000000000000028e+01 2.820799999999999841e+01 -3.778199999999999648e+01 8.179821000000000453e+00 -1.469103996938199153e-01
-2.006599999999999895e+01 6.045499999999999829e+01 -3.544800000000000040e+01 1.720683000000000007e+01 -2.642402009502446414e-01
-2.006599999999999895e+01 5.544899999999999807e+01 -1.097199999999999953e+01 2.230432000000000059e+01 7.051313465298372773e-03
-2.006400000000000006e+01 3.743200000000000216e+01 -4.443800000000000239e+01 9.014125999999999195e+00 -1.436101365751137615e-01
-2.006299999999999883e+01 2.837800000000000011e+01 -4.216499999999999915e+01 5.367893999999999721e+00 -1.500025872265481341e-01
-2.006200000000000117e+01 4.792699999999999960e+01 -4.134700000000000131e+01 3.379227999999999899e+00 -1.659215121663553949e-01
-2.005199999999999960e+01 4.147999999999999687e+01 -2.325499999999999901e+01 1.834159000000000095e+00 4.876245379203591676e-03
-2.005199999999999960e+01 4.288000000000000256e+01 -2.325499999999999901e+01 -1.614412000000000091e+01 5.701525851321024782e-03
-2.005000000000000071e+01 5.406700000000000017e+01 -1.362899999999999956e+01 1.455490999999999957e+01 -1.796104426150830213e-01
-2.004899999999999949e+01 2.943400000000000105e+01 -3.694500000000000028e+01 8.773144000000000275e+00 -1.454498703967044559e-01
-2.004599999999999937e+01 4.501800000000000068e+01 -5.380099999999999882e-01 -5.688403999999999883e+01 -2.432341461477903199e-01
-2.004500000000000171e+01 3.130999999999999872e+01 -3.116100000000000136e+01 -1.871824000000000154e+01 -9.999913671948067184e-02
-2.003300000000000125e+01 5.521800000000000352e+01 -1.016600000000000037e+01 2.252558000000000149e+01 -1.753531664337686646e-01
-2.003300000000000125e+01 5.542699999999999960e+01 -9.429899999999999949e+00 9.952218999999999482e+00 7.720058014118326428e-03
-2.002799999999999869e+01 5.137500000000000000e+01 -2.297100000000000009e+01 7.458123999999999754e+00 1.850257677714769317e-02
-2.002799999999999869e+01 5.137500000000000000e+01 -2.070599999999999952e+01 3.590352000000000210e+00 -1.089008155760442104e-01
-2.002799999999999869e+01 5.277499999999999858e+01 -2.297100000000000009e+01 -2.030808999999999997e+01 -1.043841436228621078e-01
-2.002799999999999869e+01 5.277499999999999858e+01 -2.070599999999999952e+01 -3.505635999999999974e+00 -1.002026947562524584e-01
-2.001899999999999835e+01 3.732999999999999829e+01 -2.822200000000000131e+01 1.481113000000000035e+01 3.121769598536294245e-03
-2.001300000000000168e+01 6.662399999999999523e+01 -2.715200000000000102e+01 -3.295208000000000137e+00 -3.533047069173024524e-02
-2.000799999999999912e+01 6.656699999999999307e+01 -2.996300000000000097e+01 2.802893000000000079e+00 -2.544679244051161193e-01
-2.000700000000000145e+01 6.694400000000000261e+01 -3.714600000000000080e+01 8.459334000000000131e+00 -2.542000888747718568e-01
-2.000300000000000011e+01 4.500500000000000256e+01 -4.299699999999999989e+01 -4.600702000000000069e+00 -2.553704060314865298e-01
-2.000000000000000000e+01 5.344100000000000250e+01 -4.136299999999999955e+01 -4.415581000000000422e+00 -1.731411203985170899e-01
-2.000000000000000000e+01 4.167600000000000193e+01 -4.410399999999999920e+01 -4.775947999999999638e+00 -1.346815188176670175e-01
