6.979099999999999682e+01 -1.647100000000000009e+01 -6.737199999999999989e+01 1.650683000000000078e+01 -3.499999999999999778e-01
6.980599999999999739e+01 -2.725199999999999889e+01 -8.342700000000000671e+01 3.968619999999999925e-01 -2.546376096225076990e-01
6.980599999999999739e+01 -2.699800000000000111e+01 -8.432099999999999795e+01 7.813525000000000054e-01 -2.543097427215631479e-01
6.980599999999999739e+01 -2.699800000000000111e+01 -8.253300000000000125e+01 1.087232999999999949e-01 -2.547305837113069127e-01
6.980599999999999739e+01 -2.757300000000000040e+01 -6.506399999999999295e+01 1.150558999999999976e+01 -2.577579032760379807e-01
6.981900000000000261e+01 -6.028699999999999726e+00 -7.580100000000000193e+01 -8.784782999999999120e+00 -3.499999999999999778e-01
6.981999999999999318e+01 -2.200199999999999889e+01 -7.164300000000000068e+01 7.942740999999999829e+00 -3.500000000000000333e-01
6.981999999999999318e+01 -2.200199999999999889e+01 -6.937699999999999534e+01 5.888518000000000363e+00 -3.500000000000000888e-01
6.981999999999999318e+01 -2.060200000000000031e+01 -7.164300000000000068e+01 1.333033999999999963e+01 -3.499999999999999778e-01
6.982200000000000273e+01 -1.627799999999999869e+01 -6.871500000000000341e+01 1.491830999999999996e+01 -3.499999999999999778e-01
6.982599999999999341e+01 -1.439400000000000013e+01 -6.284199999999999875e+01 3.503757999999999928e+00 -3.500000000000000333e-01
6.982800000000000296e+01 -1.335200000000000031e+01 -5.805599999999999739e+01 -8.586715999999999127e+00 -3.499999999999999778e-01
6.982800000000000296e+01 -1.089199999999999946e+01 -5.805599999999999739e+01 3.315747000000000355e+01 -7.881842253086125683e-02
6.983199999999999363e+01 -1.678399999999999892e+01 -6.659099999999999397e+01 2.953216000000000108e+01 -3.499999999999999778e-01
6.983199999999999363e+01 -1.474699999999999989e+01 -8.109399999999999409e+01 5.842946999999999669e+00 -3.499999999999999778e-01
6.983599999999999852e+01 -1.370800000000000018e+01 -5.878799999999999670e+01 -9.496369999999999534e-01 -3.499999999999999778e-01
6.983599999999999852e+01 -1.053599999999999959e+01 -5.973599999999999710e+01 7.673394000000000048e+00 -3.499999999999999778e-01
6.984499999999999886e+01 -8.368000000000000327e+00 -8.982599999999999341e+01 6.317089000000000176e+00 -3.500000000000000333e-01
6.984600000000000364e+01 -1.049900000000000055e+00 -8.487399999999999523e+01 4.122317999999999927e+01 -3.500000000000000333e-01
6.984699999999999420e+01 -9.734099999999999753e+00 -8.659999999999999432e+01 6.174318999999999669e+00 -3.499999999999999778e-01
6.984999999999999432e+01 -2.894800000000000040e+01 -6.703499999999999659e+01 1.998631999999999964e+00 -2.580573055531141802e-01
6.984999999999999432e+01 -2.894800000000000040e+01 -6.598499999999999943e+01 2.489395000000000024e+00 -2.580941917042327560e-01
6.985399999999999920e+01 -2.611499999999999844e+01 -6.586100000000000421e+01 8.059435999999999822e-01 -2.572650317142387011e-01
6.985599999999999454e+01 -3.606500000000000261e-01 -8.862000000000000455e+01 1.923070999999999975e+00 -1.637266626956951909e-01
6.985800000000000409e+01 -1.971000000000000085e+01 -7.124200000000000443e+01 1.472230000000000061e+01 -3.500000000000000333e-01
6.985999999999999943e+01 -2.172200000000000131e+01 -6.529500000000000171e+01 5.697047999999999668e+00 -3.499999999999999778e-01
6.985999999999999943e+01 -2.172200000000000131e+01 -6.442900000000000205e+01 5.118031000000000219e+00 -3.499999999999999778e-01
6.985999999999999943e+01 -2.172200000000000131e+01 -6.337899999999999778e+01 6.260059000000000040e+00 -3.499999999999999778e-01
6.985999999999999943e+01 -1.897200000000000131e+01 -6.442900000000000205e+01 4.515768999999999700e+00 -3.500000000000000333e-01
6.985999999999999943e+01 -1.897200000000000131e+01 -6.337899999999999778e+01 4.586579000000000406e+00 -3.499999999999999778e-01
6.986100000000000421e+01 -4.737299999999999844e-01 -8.954800000000000182e+01 9.473203000000000040e-01 -2.000131461434052349e-01
6.986299999999999955e+01 -2.755699999999999861e+01 -7.956499999999999773e+01 4.952828000000000230e+00 -2.556366158827419466e-01
6.986700000000000443e+01 -1.212199999999999989e+01 -5.723299999999999699e+01 2.086164999999999825e+00 -7.934884054383666008e-02
6.987999999999999545e+01 -2.472899999999999920e+01 -8.713500000000000512e+01 -8.121125000000000149e-01 -3.499999999999999223e-01
6.987999999999999545e+01 -2.463200000000000145e+01 -8.867700000000000671e+01 2.525797999999999988e+00 -3.499999999999999778e-01
6.987999999999999545e+01 -2.451999999999999957e+01 -8.787099999999999511e+01 1.859425000000000106e+00 -3.499999999999999778e-01
6.987999999999999545e+01 -2.440099999999999980e+01 -8.949200000000000443e+01 4.836909000000000347e+00 -3.499999999999999778e-01
6.987999999999999545e+01 -2.308200000000000074e+01 -9.022700000000000387e+01 8.113250999999999991e+00 -3.499999999999999778e-01
6.988100000000000023e+01 -1.078899999999999970e+01 -5.899799999999999756e+01 1.122163999999999939e+00 -3.500000000000000333e-01
6.988299999999999557e+01 -1.272000000000000020e+00 -8.373999999999999488e+01 1.042661999999999978e+01 -3.499999999999999778e-01
6.988400000000000034e+01 -1.068999999999999950e+01 -8.671200000000000330e+01 2.264082000000000150e+01 -3.499999999999999778e-01
6.988400000000000034e+01 -4.403299999999999770e+00 -7.734399999999999409e+01 -1.954976999999999876e+01 -3.499999999999999778e-01
6.988899999999999579e+01 -2.755600000000000094e+01 -7.443800000000000239e+01 2.643518999999999863e+01 -2.567187877562531750e-01
6.988899999999999579e+01 -2.734700000000000131e+01 -7.370199999999999818e+01 7.137372000000000050e+00 -3.500000000000000333e-01
6.989000000000000057e+01 -1.385899999999999999e+01 -6.589100000000000534e+01 1.471350999999999942e+01 -3.499999999999999778e-01
6.990500000000000114e+01 -1.325599999999999890e+00 -7.826099999999999568e+01 4.918810999999999822e+00 -3.499999999999999778e-01
6.990699999999999648e+01 -2.641400000000000148e+01 -8.571299999999999386e+01 -1.625820000000000043e-01 -2.536639557007106527e-01
6.991500000000000625e+01 -1.602100000000000080e+01 -9.010699999999999932e+01 2.370851000000000042e+00 -3.500000000000000333e-01
6.991500000000000625e+01 -8.590999999999999304e+00 -6.418000000000000682e+01 3.047854000000000063e+00 -3.499999999999999778e-01
6.991500000000000625e+01 -8.590999999999999304e+00 -6.142999999999999972e+01 1.013514999999999944e+01 -3.499999999999999778e-01
6.992100000000000648e+01 -2.171099999999999852e+01 -8.959099999999999397e+01 1.775580000000000069e+01 -3.499999999999999778e-01
6.992499999999999716e+01 -2.767999999999999972e+01 -7.266599999999999682e+01 -1.591180999999999957e+00 -2.570792859867003233e-01
6.992700000000000671e+01 -2.899300000000000210e+00 -7.733100000000000307e+01 -1.589596000000000064e-01 -3.500000000000000333e-01
6.992700000000000671e+01 -1.848700000000000010e+00 -7.733100000000000307e+01 5.857745999999999675e+00 -3.499999999999999778e-01
6.992799999999999727e+01 -2.651999999999999957e+01 -8.044799999999999329e+01 4.816533000000000064e-01 -3.499999999999999223e-01
6.993099999999999739e+01 -2.380799999999999983e+01 -6.720600000000000307e+01 1.516583000000000014e+00 -3.500000000000000333e-01
6.993500000000000227e+01 -1.063199999999999967e+01 -7.425300000000000011e+01 -3.334420000000000162e+00 -3.500000000000000333e-01
6.993500000000000227e+01 -1.063199999999999967e+01 -7.338700000000000045e+01 4.604492999999999725e+00 -3.499999999999999778e-01
6.993600000000000705e+01 -2.677799999999999869e+01 -8.490000000000000568e+01 5.523531999999999886e-01 -2.540363028752484209e-01
6.994400000000000261e+01 -1.607400000000000162e+01 -6.783299999999999841e+01 2.125471999999999895e+01 -3.500000000000000333e-01
6.995199999999999818e+01 -1.034600000000000009e+01 -7.226999999999999602e+01 9.593994999999999607e+00 -3.499999999999999778e-01
6.995399999999999352e+01 -1.374799999999999933e+01 -6.526900000000000546e+01 4.557967999999999797e+00 -3.499999999999999778e-01
6.996200000000000330e+01 -1.778000000000000114e+01 -8.871599999999999397e+01 9.088447999999999638e+00 -3.499999999999999778e-01
6.996200000000000330e+01 -1.891799999999999926e+01 -6.696800000000000352e+01 9.916147000000000489e+00 -3.500000000000000333e-01
6.997400000000000375e+01 -2.837399999999999878e+01 -7.610299999999999443e+01 8.485953000000000301e+00 -2.566084893786557686e-01
6.997400000000000375e+01 -2.053999999999999915e+01 -6.897400000000000375e+01 1.025755999999999979e+01 -3.499999999999999778e-01
6.999899999999999523e+01 -1.135100000000000087e+01 -6.645699999999999363e+01 -3.780190999999999857e+00 -3.499999999999999778e-01
6.999899999999999523e+01 -9.752900000000000347e+00 -6.645699999999999363e+01 -3.162289000000000172e+01 -3.499999999999999778e-01
6.999899999999999523e+01 -1.349600000000000044e+01 -6.453499999999999659e+01 -4.473411999999999722e+00 -3.500000000000000333e-01
7.000300000000000011e+01 -1.459200000000000053e+01 -9.028600000000000136e+01 2.249625999999999948e+01 -3.499999999999999778e-01
7.000400000000000489e+01 -8.473000000000000753e+00 -7.546200000000000330e+01 2.263218000000000174e+01 -3.499999999999999778e-01
7.000400000000000489e+01 -2.303699999999999903e+01 -6.730899999999999750e+01 1.228363000000000094e+00 -3.499999999999999778e-01
7.000400000000000489e+01 -2.184600000000000009e+01 -6.664499999999999602e+01 5.930447000000000024e+00 -3.499999999999999778e-01
7.000400000000000489e+01 -2.163700000000000045e+01 -6.590900000000000603e+01 6.587902999999999842e+00 -3.499999999999999778e-01
7.000400000000000489e+01 -1.996199999999999974e+01 -6.881699999999999307e+01 1.180489000000000033e+01 -3.500000000000000333e-01
7.000499999999999545e+01 -1.324699999999999989e+01 -9.107099999999999795e+01 5.314113000000000309e-01 -3.499999999999999778e-01
7.000499999999999545e+01 -5.342100000000000293e+00 -9.178199999999999648e+01 7.338815000000000310e+00 -1.614224490981746307e-01
7.000600000000000023e+01 -5.675500000000000433e+00 -7.661299999999999955e+01 -1.872631000000000157e+01 -3.499999999999999778e-01
7.001099999999999568e+01 -8.947599999999999554e+00 -8.679600000000000648e+01 -1.024281000000000041e+01 -3.499999999999999778e-01
7.002800000000000580e+01 -2.034700000000000131e+01 -6.242799999999999727e+01 -2.780119000000000007e+00 -3.499999999999999778e-01
7.003400000000000603e+01 -1.002100000000000080e+01 -6.569799999999999329e+01 -2.821048000000000044e+01 -3.499999999999999778e-01
7.003700000000000614e+01 -2.185500000000000220e+00 -9.172499999999999432e+01 -5.715404999999999625e+00 -1.640814970637476389e-01
7.004000000000000625e+01 -1.440199999999999925e+01 -6.696399999999999864e+01 1.377923000000000009e+01 -3.499999999999999778e-01
7.004099999999999682e+01 -1.548300000000000054e+01 -8.109399999999999409e+01 6.966015999999999764e+00 -3.499999999999999778e-01
7.004099999999999682e+01 -1.401099999999999923e+01 -8.109399999999999409e+01 1.039797000000000082e+01 -3.499999999999999778e-01
7.004200000000000159e+01 -1.125399999999999956e+01 -8.638599999999999568e+01 2.786486000000000018e+01 -3.499999999999999778e-01
7.004200000000000159e+01 -1.109299999999999997e+01 -6.548799999999999955e+01 -6.521300000000000097e+00 -3.499999999999999778e-01
7.004500000000000171e+01 -1.817999999999999972e+01 -7.118800000000000239e+01 1.217074000000000034e+01 -3.499999999999999778e-01
7.004699999999999704e+01 -3.982000000000000206e+00 -9.227800000000000580e+01 -2.744616000000000167e+00 -1.625982563571533590e-01
7.004699999999999704e+01 -3.044000000000000039e+00 -9.227800000000000580e+01 -4.430447000000000024e+00 -1.634088353558989515e-01
7.005200000000000671e+01 -2.107900000000000063e+01 -8.918099999999999739e+01 9.859443000000000623e+00 -3.499999999999999778e-01
7.006100000000000705e+01 -1.242600000000000016e+01 -6.457299999999999329e+01 1.287590999999999930e+00 -3.499999999999999778e-01
7.006100000000000705e+01 -1.152399999999999913e+01 -6.758700000000000330e+01 7.814461999999999797e+00 -3.500000000000000333e-01
7.008299999999999841e+01 -7.934000000000000163e+00 -9.185599999999999454e+01 1.518477000000000077e+00 -3.499999999999999778e-01
7.008400000000000318e+01 -9.424900000000000500e-01 -9.086700000000000443e+01 9.503009000000000484e+00 -3.848712359352968182e-01
7.008700000000000330e+01 1.498900000000000059e-02 -8.782599999999999341e+01 -9.708458000000000254e+00 -3.499999999999999778e-01
7.008700000000000330e+01 1.498900000000000059e-02 -8.622799999999999443e+01 -1.580377000000000010e+01 -3.499999999999999778e-01
7.008700000000000330e+01 2.419999999999999929e-01 -8.702700000000000102e+01 -2.134241000000000099e+01 -3.500000000000000333e-01
7.008799999999999386e+01 -2.243499999999999872e+01 -7.094299999999999784e+01 5.441188000000000136e-01 -3.499999999999999778e-01
7.008799999999999386e+01 -2.243499999999999872e+01 -7.007699999999999818e+01 3.696725999999999956e+00 -3.499999999999999778e-01
7.008799999999999386e+01 -9.853400000000000603e+00 -6.501399999999999579e+01 -1.605732000000000070e+01 -3.499999999999999778e-01
7.009099999999999397e+01 -9.766600000000000392e+00 -7.499899999999999523e+01 -2.442686000000000135e+01 -3.500000000000000333e-01
7.009999999999999432e+01 -1.517999999999999972e+01 -8.179399999999999693e+01 -1.278847000000000023e+01 -3.499999999999999778e-01
7.009999999999999432e+01 -1.517999999999999972e+01 -8.039400000000000546e+01 1.180183000000000071e+01 -3.499999999999999778e-01
7.009999999999999432e+01 -1.431400000000000006e+01 -8.179399999999999693e+01 6.079133999999999816e+00 -3.499999999999999778e-01
7.009999999999999432e+01 -1.431400000000000006e+01 -8.039400000000000546e+01 1.321546000000000021e+01 -3.500000000000000333e-01
7.010899999999999466e+01 -1.140700000000000003e+01 -6.457800000000000296e+01 1.290050000000000086e-01 -3.500000000000000333e-01
7.010999999999999943e+01 -1.853699999999999903e+01 -8.872299999999999898e+01 9.815314000000000760e+00 -3.499999999999999778e-01
7.011400000000000432e+01 -9.886400000000000077e+00 -7.192799999999999727e+01 2.932532999999999834e+00 -3.499999999999999778e-01
7.011599999999999966e+01 -2.632000000000000028e+01 -8.123000000000000398e+01 -1.542029000000000094e+00 -3.499999999999999778e-01
7.012199999999999989e+01 -6.010999999999999677e-01 -9.006399999999999295e+01 9.061854999999999549e+00 -1.999369364795923754e-01
7.012399999999999523e+01 -2.130199999999999960e+01 -7.170099999999999341e+01 1.558752999999999922e+01 -3.499999999999999778e-01
7.012500000000000000e+01 -1.190600000000000058e+01 -6.851600000000000534e+01 1.622506999999999877e+01 -3.499999999999999778e-01
7.012500000000000000e+01 -1.485500000000000043e+01 -6.527200000000000557e+01 3.568760999999999939e+01 -3.499999999999999778e-01
7.012800000000000011e+01 -1.507000000000000028e+01 -6.104800000000000182e+01 8.045919999999999739e-01 -3.499999999999999778e-01
7.012800000000000011e+01 -1.484299999999999997e+01 -6.184700000000000131e+01 2.561126999999999931e+00 -3.500000000000000333e-01
7.012800000000000011e+01 -1.484299999999999997e+01 -6.024900000000000233e+01 -6.490480999999999945e+00 -3.499999999999999778e-01
7.012800000000000011e+01 -1.389400000000000013e+01 -5.929999999999999716e+01 4.357706000000000079e-01 -3.499999999999999778e-01
7.013100000000000023e+01 -1.156499999999999950e+01 -8.722700000000000387e+01 2.432601999999999975e+01 -3.499999999999999778e-01
7.014499999999999602e+01 -1.693999999999999950e+00 -9.155299999999999727e+01 -3.441619000000000206e+00 -1.645352327440267326e-01
7.015000000000000568e+01 -1.203400000000000070e+01 -9.228799999999999670e+01 -1.928025000000000100e+00 -3.499999999999999778e-01
7.015000000000000568e+01 -1.051399999999999935e+01 -9.228799999999999670e+01 -1.367694000000000010e+01 -3.499999999999999778e-01
7.015099999999999625e+01 -1.398300000000000054e+01 -6.780100000000000193e+01 -4.054027999999999743e+00 -3.499999999999999778e-01
7.015099999999999625e+01 -7.929400000000000226e+00 -8.786100000000000421e+01 -1.706082999999999927e+01 -3.499999999999999223e-01
7.015399999999999636e+01 -9.730299999999999727e+00 -6.753499999999999659e+01 -3.146425999999999945e+00 -3.499999999999999778e-01
7.015900000000000603e+01 -5.880100000000000326e-01 -8.914000000000000057e+01 2.224000000000000199e+00 -1.649066218485079061e-01
7.016700000000000159e+01 -1.273499999999999943e+01 -6.869599999999999795e+01 3.305113000000000079e-01 -3.499999999999999778e-01
7.016899999999999693e+01 -6.554599999999999760e+00 -9.236100000000000421e+01 2.166624000000000105e+00 -3.499999999999999778e-01
7.017499999999999716e+01 -2.842299999999999827e+01 -6.513500000000000512e+01 5.503645999999999816e+00 -2.579061906497782664e-01
7.017499999999999716e+01 -2.672299999999999898e+01 -6.513500000000000512e+01 1.170671000000000017e+00 -2.574224725247126200e-01
7.018399999999999750e+01 -2.829400000000000048e+01 -7.934600000000000364e+01 5.857561999999999713e+00 -2.558717202153027448e-01
7.018699999999999761e+01 -1.361999999999999922e+01 -6.330899999999999750e+01 2.400430000000000064e+00 -3.499999999999999778e-01
7.018800000000000239e+01 -5.103299999999999947e+00 -7.728600000000000136e+01 -2.776724000000000103e+01 -3.499999999999999778e-01
7.018800000000000239e+01 -1.137899999999999956e+01 -8.813899999999999579e+01 3.175313999999999837e+01 -3.499999999999999778e-01
7.018999999999999773e+01 -6.772199999999999775e+00 -7.604000000000000625e+01 -4.144205000000000250e-01 -3.499999999999999778e-01
7.020199999999999818e+01 -1.693799999999999883e+01 -7.034900000000000375e+01 1.300254999999999939e+01 -3.499999999999999778e-01
7.020499999999999829e+01 -1.649099999999999966e+01 -8.934699999999999420e+01 9.398260999999999754e+00 -3.500000000000000333e-01
7.020600000000000307e+01 -1.595199999999999996e+01 -6.534199999999999875e+01 3.036195000000000022e+01 -3.499999999999999778e-01
7.020900000000000318e+01 -1.028500000000000014e+01 -8.587399999999999523e+01 3.805678999999999945e+01 -3.499999999999999778e-01
7.021399999999999864e+01 -2.579799999999999827e+01 -6.620699999999999363e+01 2.482568000000000108e+00 -2.570556672355128747e-01
7.021699999999999875e+01 -1.082300000000000040e+01 -6.629999999999999716e+01 -2.999571999999999861e+01 -3.499999999999999778e-01
7.023000000000000398e+01 -9.431599999999999540e+00 -9.029099999999999682e+01 -9.477079999999999949e-01 -3.499999999999999778e-01
7.023099999999999454e+01 -1.105100000000000016e+01 -8.895999999999999375e+01 2.099840000000000018e+01 -3.499999999999999778e-01
7.023900000000000432e+01 -1.954599999999999937e+01 -8.875900000000000034e+01 1.382953000000000010e+01 -3.499999999999999778e-01
7.023999999999999488e+01 -8.065699999999999648e+00 -6.332999999999999829e+01 5.482474999999999987e+00 -3.500000000000000333e-01
7.023999999999999488e+01 -8.065699999999999648e+00 -6.228000000000000114e+01 7.966086999999999918e+00 -3.500000000000000333e-01
7.024399999999999977e+01 -1.526099999999999923e+01 -9.017000000000000171e+01 2.166770999999999958e+01 -3.499999999999999778e-01
7.024599999999999511e+01 -2.956299999999999883e+01 -7.832899999999999352e+01 2.520922000000000107e+00 -2.564807271014272194e-01
7.024599999999999511e+01 -2.956299999999999883e+01 -7.727899999999999636e+01 3.087782999999999944e+00 -2.566724318110881198e-01
7.024699999999999989e+01 -2.113700000000000045e+01 -6.939199999999999591e+01 6.575092999999999854e+00 -3.499999999999999778e-01
7.024899999999999523e+01 -9.067899999999999849e+00 -9.130700000000000216e+01 -2.853704000000000018e+00 -3.500000000000000888e-01
7.025100000000000477e+01 -1.199000000000000021e+01 -8.638599999999999568e+01 1.640966999999999842e+01 -3.500000000000000333e-01
7.025100000000000477e+01 -2.528099999999999881e+01 -8.667400000000000659e+01 -4.309016999999999875e+00 -3.500000000000000888e-01
7.025199999999999534e+01 -1.001099999999999923e+01 -6.844799999999999329e+01 8.195612999999999815e+00 -3.499999999999999778e-01
7.026300000000000523e+01 -9.415900000000000603e+00 -7.095000000000000284e+01 -1.970285000000000064e+00 -3.499999999999999778e-01
7.026699999999999591e+01 -2.529100000000000037e+01 -6.679500000000000171e+01 8.157987000000000322e+00 -3.499999999999999778e-01
7.026800000000000068e+01 -1.004499999999999993e+01 -6.013300000000000267e+01 7.187456000000000067e+00 -3.500000000000000888e-01
7.026999999999999602e+01 -2.654100000000000037e+01 -8.200199999999999534e+01 -6.130274999999999475e-01 -3.500000000000000888e-01
7.027100000000000080e+01 -1.628800000000000026e+01 -6.611700000000000443e+01 4.724687000000000126e+01 -3.499999999999999778e-01
7.027100000000000080e+01 -1.465799999999999947e+01 -6.611700000000000443e+01 4.355028000000000077e+01 -3.500000000000000333e-01
7.027700000000000102e+01 -7.877100000000000435e+00 -8.942900000000000205e+01 -2.350185999999999942e-01 -3.499999999999999778e-01
7.027700000000000102e+01 -7.668000000000000149e+00 -8.869299999999999784e+01 -5.245555000000000412e+00 -3.499999999999999778e-01
7.029699999999999704e+01 -9.563299999999999912e+00 -7.226999999999999602e+01 -4.917656000000000249e-01 -3.499999999999999778e-01
7.029800000000000182e+01 -1.259200000000000053e+01 -5.776599999999999824e+01 -8.568037000000000569e-02 -3.499999999999999778e-01
7.029800000000000182e+01 -1.165199999999999925e+01 -5.776599999999999824e+01 6.850387000000000626e+01 -3.500000000000000333e-01
7.030200000000000671e+01 -1.272600000000000087e+01 -6.407399999999999807e+01 1.636412999999999895e+00 -3.499999999999999778e-01
7.030599999999999739e+01 -1.601699999999999946e+01 -6.688400000000000034e+01 1.318018999999999963e+01 -3.499999999999999778e-01
7.030899999999999750e+01 -1.168699999999999939e+01 -8.568600000000000705e+01 3.347525000000000261e+01 -3.500000000000000333e-01
7.031600000000000250e+01 -2.821000000000000085e+01 -7.104000000000000625e+01 -9.353987000000000052e+00 -2.573901618846122785e-01
7.031600000000000250e+01 -1.363299999999999956e+00 -7.965999999999999659e+01 -2.929713000000000109e-02 -3.499999999999999778e-01
7.033299999999999841e+01 -2.799500000000000099e+01 -7.184900000000000375e+01 -6.160366999999999926e+00 -3.499999999999999778e-01
7.033700000000000330e+01 -1.696699999999999875e+01 -8.863100000000000023e+01 5.756451000000000207e+00 -3.499999999999999778e-01
7.034600000000000364e+01 -1.238899999999999890e+00 -8.059099999999999397e+01 -2.561728000000000005e+00 -3.499999999999999778e-01
7.034799999999999898e+01 -9.081899999999999196e+00 -6.103300000000000125e+01 5.990268000000000370e+00 -3.499999999999999778e-01
7.034799999999999898e+01 -1.887999999999999901e+01 -7.124599999999999511e+01 1.310942999999999969e+01 -3.499999999999999778e-01
7.035299999999999443e+01 -1.647999999999999909e+00 -7.885399999999999920e+01 2.616455000000000197e+00 -3.499999999999999778e-01
7.035699999999999932e+01 -2.785900000000000176e+01 -7.531399999999999295e+01 2.023380999999999830e+01 -2.565128591808087943e-01
7.035899999999999466e+01 -2.385699999999999932e+01 -8.993099999999999739e+01 2.893991999999999898e+00 -3.499999999999999778e-01
7.035899999999999466e+01 -2.230699999999999861e+01 -8.993099999999999739e+01 1.287029000000000067e+01 -3.499999999999999778e-01
7.036100000000000421e+01 -1.132300000000000040e+01 -5.852600000000000335e+01 1.422091999999999956e+01 -3.499999999999999778e-01
7.036100000000000421e+01 -2.912099999999999866e+01 -6.721399999999999864e+01 2.076386999999999983e+00 -2.579751221600098954e-01
7.036100000000000421e+01 -2.891199999999999903e+01 -6.795000000000000284e+01 2.258424999999999905e+00 -2.578863267754780697e-01
7.036100000000000421e+01 -2.865800000000000125e+01 -6.884399999999999409e+01 2.955308000000000046e+00 -2.577733358336732894e-01
7.036100000000000421e+01 -2.844900000000000162e+01 -6.957999999999999829e+01 -3.385488999999999860e-01 -2.576614806353536014e-01
7.036799999999999500e+01 -3.310200000000000031e+00 -7.806600000000000250e+01 -1.117077999999999960e-01 -3.499999999999999778e-01
7.036799999999999500e+01 -2.374000000000000110e+00 -7.806600000000000250e+01 2.252817999999999987e+00 -3.499999999999999778e-01
7.036799999999999500e+01 -9.931699999999999307e+00 -7.312000000000000455e+01 8.164915999999999840e+00 -3.500000000000000333e-01
7.036899999999999977e+01 -1.824899999999999878e+01 -8.791700000000000159e+01 9.490489999999999426e+00 -3.499999999999999778e-01
7.036899999999999977e+01 -1.738299999999999912e+01 -8.791700000000000159e+01 1.014605000000000068e+01 -3.500000000000000333e-01
7.037099999999999511e+01 -2.010699999999999932e+01 -7.086499999999999488e+01 1.676714000000000127e+01 -3.500000000000000333e-01
7.037300000000000466e+01 -2.830399999999999849e+01 -7.013800000000000523e+01 -6.001166000000000000e-01 -3.499999999999999778e-01
7.037900000000000489e+01 -4.832200000000000273e+00 -9.225499999999999545e+01 -3.287354000000000109e+00 -1.620873627536836836e-01
7.038200000000000500e+01 -9.430899999999999395e+00 -6.429800000000000182e+01 3.093145999999999951e+00 -3.499999999999999778e-01
7.038200000000000500e+01 -1.091699999999999982e+01 -6.715699999999999648e+01 1.420569999999999888e-01 -3.500000000000000333e-01
7.038500000000000512e+01 -2.087199999999999989e+01 -6.305400000000000205e+01 1.538441000000000081e+01 -3.499999999999999778e-01
7.038500000000000512e+01 -1.982199999999999918e+01 -6.305400000000000205e+01 -2.870750999999999831e+00 -3.499999999999999778e-01
7.039100000000000534e+01 -1.264999999999999902e+00 -8.146200000000000330e+01 5.217557000000000045e+01 -3.499999999999999778e-01
7.039600000000000080e+01 -1.159099999999999930e+01 -5.928499999999999659e+01 1.136469999999999914e+01 -3.499999999999999778e-01
7.040000000000000568e+01 -9.719799999999999329e+00 -6.955500000000000682e+01 1.848872000000000071e+01 -3.499999999999999778e-01
7.040300000000000580e+01 -2.422400000000000020e+01 -6.714199999999999591e+01 6.473643000000000036e+00 -3.499999999999999778e-01
7.040399999999999636e+01 -4.237499999999999822e+00 -7.773099999999999454e+01 -1.559894000000000069e+01 -3.500000000000000888e-01
7.040600000000000591e+01 -1.963100000000000023e+01 -6.567700000000000671e+01 4.782310999999999979e+00 -3.500000000000000333e-01
7.040800000000000125e+01 -1.037199999999999989e+01 -6.428100000000000591e+01 6.337310000000000443e-01 -3.500000000000000333e-01
7.042600000000000193e+01 -1.023499999999999943e+01 -7.381999999999999318e+01 7.065234000000000236e+00 -3.500000000000000333e-01
7.043500000000000227e+01 -1.906200000000000117e+01 -8.787300000000000466e+01 1.747041000000000111e+01 -3.499999999999999778e-01
7.043699999999999761e+01 -9.173000000000000043e+00 -7.519499999999999318e+01 -6.184336000000000055e+00 -3.499999999999999778e-01
7.043699999999999761e+01 -2.233699999999999974e+01 -6.704099999999999682e+01 1.097736000000000045e+00 -3.499999999999999778e-01
7.043999999999999773e+01 -1.250399999999999956e+01 -9.152800000000000580e+01 -9.486489000000000171e-01 -3.500000000000000333e-01
7.044400000000000261e+01 -8.456699999999999662e+00 -8.719299999999999784e+01 -5.475615000000000343e+00 -3.499999999999999778e-01
7.045300000000000296e+01 -2.693100000000000094e+01 -7.992199999999999704e+01 1.673321000000000058e+00 -3.499999999999999778e-01
7.045399999999999352e+01 -5.825099999999999945e+00 -9.229099999999999682e+01 -3.450092999999999854e+00 -1.614307788056221493e-01
7.045399999999999352e+01 -1.128800000000000026e+01 -5.998499999999999943e+01 1.887248999999999910e+01 -3.499999999999999778e-01
7.045600000000000307e+01 -2.124099999999999966e+01 -6.390400000000000347e+01 6.115895000000000081e+00 -3.499999999999999778e-01
7.045600000000000307e+01 -1.945299999999999940e+01 -6.390400000000000347e+01 -2.301010000000000222e+00 -3.500000000000000333e-01
7.045699999999999363e+01 -2.576599999999999824e+01 -8.644499999999999318e+01 -8.381499999999999506e-01 -3.499999999999999778e-01
7.046999999999999886e+01 -1.650600000000000023e+01 -6.964900000000000091e+01 1.172502000000000066e+01 -3.499999999999999778e-01
7.046999999999999886e+01 -1.343500000000000050e+01 -6.863800000000000523e+01 2.752319999999999767e-01 -3.500000000000000333e-01
7.047199999999999420e+01 -1.281400000000000006e+01 -5.856400000000000006e+01 -6.293054999999999843e+00 -3.499999999999999778e-01
7.047299999999999898e+01 -1.952899999999999991e+01 -6.825600000000000023e+01 6.855106000000000144e+00 -3.499999999999999778e-01
7.047899999999999920e+01 -1.127399999999999913e+01 -9.235099999999999909e+01 -1.179543999999999926e+01 -3.500000000000000333e-01
7.048199999999999932e+01 -1.022100000000000009e+01 -6.703300000000000125e+01 -4.635635999999999868e+00 -3.499999999999999223e-01
7.048199999999999932e+01 -1.008699999999999974e+01 -9.032699999999999818e+01 -1.398310999999999993e+01 -3.500000000000000333e-01
7.048600000000000421e+01 -2.136499999999999844e+01 -6.483499999999999375e+01 4.691184999999999938e+00 -3.499999999999999778e-01
7.049299999999999500e+01 -1.135999999999999943e+01 -8.491100000000000136e+01 5.449302000000000135e+01 -3.499999999999999778e-01
7.049599999999999511e+01 -1.939799999999999969e+01 -6.648399999999999466e+01 3.711422999999999917e+00 -3.499999999999999778e-01
7.049599999999999511e+01 -1.474699999999999989e+01 -8.228499999999999659e+01 -1.267036000000000051e+01 -3.500000000000000333e-01
7.049599999999999511e+01 -1.474699999999999989e+01 -7.990399999999999636e+01 1.007822999999999958e+01 -3.499999999999999778e-01
7.049699999999999989e+01 -1.974399999999999977e+01 -6.473199999999999932e+01 6.961762999999999701e-01 -3.499999999999999778e-01
7.050199999999999534e+01 -1.547300000000000075e+01 -6.611700000000000443e+01 1.521701999999999941e+02 -3.500000000000000333e-01
7.050600000000000023e+01 -1.183999999999999986e+01 -6.408700000000000330e+01 6.719688999999999801e+00 -3.499999999999999778e-01
7.051500000000000057e+01 -7.344000000000000306e+00 -9.219299999999999784e+01 -2.369895999999999781e+00 -3.500000000000000888e-01
7.051999999999999602e+01 -2.173499999999999943e+01 -7.120999999999999375e+01 1.060715000000000074e+00 -3.499999999999999778e-01
7.051999999999999602e+01 -2.173499999999999943e+01 -6.981000000000000227e+01 5.241887000000000185e+00 -3.499999999999999778e-01
7.051999999999999602e+01 -2.086899999999999977e+01 -7.120999999999999375e+01 7.913337000000000288e+00 -3.499999999999999778e-01
7.052100000000000080e+01 -1.233900000000000041e+01 -6.900700000000000500e+01 9.100277000000000172e+00 -3.499999999999999778e-01
7.052800000000000580e+01 -2.053900000000000148e+01 -8.842499999999999716e+01 1.378786999999999985e+01 -3.500000000000000333e-01
7.052800000000000580e+01 -1.381199999999999939e+01 -9.042400000000000659e+01 5.212309000000000303e+00 -3.500000000000000333e-01
7.052899999999999636e+01 -7.623000000000000220e+00 -7.578700000000000614e+01 1.833490000000000109e+01 -3.499999999999999778e-01
7.053100000000000591e+01 -1.311700000000000088e+01 -5.926400000000000290e+01 -2.631047999999999831e+00 -3.500000000000000333e-01
7.053199999999999648e+01 -1.588000000000000078e+01 -8.152700000000000102e+01 8.073923999999999879e+00 -3.500000000000000333e-01
7.053199999999999648e+01 -1.588000000000000078e+01 -8.066200000000000614e+01 1.464023000000000074e+01 -3.499999999999999778e-01
7.053199999999999648e+01 -1.361400000000000077e+01 -8.066200000000000614e+01 1.309505000000000052e+01 -3.499999999999999778e-01
7.053600000000000136e+01 -9.768599999999999284e+00 -7.450700000000000500e+01 -7.864682000000000173e+00 -3.499999999999999223e-01
7.053799999999999670e+01 -3.512999999999999901e+00 -9.271200000000000330e+01 -3.296546999999999894e+00 -1.632881678850270912e-01
7.055200000000000671e+01 -1.521199999999999974e+01 -6.677400000000000091e+01 6.927652000000000498e+01 -3.500000000000000333e-01
7.055200000000000671e+01 -8.367900000000000560e+00 -9.136599999999999966e+01 -1.055493000000000015e+00 -3.499999999999999778e-01
7.055599999999999739e+01 -6.280200000000000227e-01 -8.500100000000000477e+01 6.849148000000000458e-01 -3.499999999999999778e-01
7.055599999999999739e+01 -4.189399999999999791e-01 -8.831699999999999307e+01 -1.060416999999999987e+01 -1.637592377843032909e-01
7.055599999999999739e+01 -4.189399999999999791e-01 -8.573699999999999477e+01 -2.225758000000000081e+01 -3.499999999999999778e-01
7.055599999999999739e+01 -9.666000000000000369e+00 -6.060600000000000165e+01 1.349152999999999913e+01 -3.499999999999999778e-01
7.055700000000000216e+01 -1.547300000000000075e+01 -6.824800000000000466e+01 1.144439000000000028e+01 -3.500000000000000888e-01
7.055700000000000216e+01 -1.120599999999999952e+01 -6.824800000000000466e+01 8.273324000000000567e+00 -3.500000000000000333e-01
7.056000000000000227e+01 -2.166400000000000148e+01 -6.559799999999999898e+01 5.703075000000000117e+00 -3.499999999999999778e-01
7.056300000000000239e+01 -1.485999999999999988e+00 -9.130599999999999739e+01 1.526562999999999981e+01 -1.647898503295865957e-01
7.056399999999999295e+01 -1.485200000000000031e+01 -6.737600000000000477e+01 1.057288999999999923e+01 -3.499999999999999778e-01
7.057099999999999795e+01 -2.903800000000000026e+01 -7.917900000000000205e+01 4.524676999999999616e+00 -2.560663549112512927e-01
7.057099999999999795e+01 -2.903800000000000026e+01 -7.642900000000000205e+01 1.214483000000000068e+01 -2.565906500894879483e-01
7.057099999999999795e+01 -1.355000000000000071e+01 -8.160500000000000398e+01 1.144649000000000072e+01 -3.500000000000000333e-01
7.057800000000000296e+01 -2.184899999999999842e+00 -9.195000000000000284e+01 -4.406674999999999898e+00 -1.642837830635632823e-01
7.057899999999999352e+01 -2.203800000000000026e+01 -7.051000000000000512e+01 1.294407000000000085e+00 -3.499999999999999778e-01
7.058299999999999841e+01 -8.530100000000000460e-01 -8.417199999999999704e+01 4.227660000000000196e+01 -3.499999999999999778e-01
7.058799999999999386e+01 -1.212199999999999989e+01 -5.852600000000000335e+01 -1.001753000000000071e+01 -3.499999999999999778e-01
7.059099999999999397e+01 -1.113799999999999901e+00 -8.337199999999999989e+01 2.785601000000000216e+00 -3.499999999999999778e-01
7.059099999999999397e+01 -1.113799999999999901e+00 -8.250600000000000023e+01 1.119697999999999993e+01 -3.499999999999999778e-01
7.059399999999999409e+01 -2.911499999999999844e+01 -6.559799999999999898e+01 3.396408000000000094e+00 -2.579797171636998843e-01
7.059600000000000364e+01 -5.556000000000000050e+00 -7.722700000000000387e+01 -2.358388000000000062e+01 -3.499999999999999778e-01
7.059799999999999898e+01 -1.431000000000000050e+01 -6.227799999999999869e+01 -2.260733000000000104e+00 -3.500000000000000333e-01
7.059799999999999898e+01 -1.431000000000000050e+01 -5.981799999999999784e+01 -8.805801000000000656e+00 -3.499999999999999778e-01
7.060699999999999932e+01 -2.354099999999999859e+00 -7.873600000000000421e+01 5.866833999999999882e+00 -3.500000000000000333e-01
7.060800000000000409e+01 -8.902200000000000557e+00 -9.042300000000000182e+01 -2.589106000000000130e+00 -3.499999999999999778e-01
7.062099999999999511e+01 -1.439300000000000068e+01 -8.333499999999999375e+01 4.141713000000000339e-02 -3.500000000000000333e-01
7.062999999999999545e+01 -1.090900000000000070e+01 -6.411700000000000443e+01 1.545009999999999994e+00 -3.499999999999999778e-01
7.063100000000000023e+01 -9.567199999999999704e+00 -8.617100000000000648e+01 -7.809480999999999895e+00 -3.499999999999999778e-01
7.063400000000000034e+01 -1.742200000000000060e+01 -7.035500000000000398e+01 1.007629999999999981e+01 -3.500000000000000333e-01
7.063400000000000034e+01 -1.238000000000000078e+01 -8.691599999999999682e+01 1.140210000000000079e+01 -3.500000000000000333e-01
7.063500000000000512e+01 -1.472199999999999953e+01 -8.386299999999999955e+01 -1.631307999999999936e+01 -3.499999999999999778e-01
7.063800000000000523e+01 -2.053999999999999915e+01 -7.016500000000000625e+01 7.613127000000000422e+00 -3.499999999999999778e-01
7.064199999999999591e+01 -1.270199999999999996e+01 -8.519599999999999795e+01 4.860735999999999990e+01 -3.500000000000000333e-01
7.064199999999999591e+01 -1.107199999999999918e+01 -8.356600000000000250e+01 4.029907000000000039e+01 -3.499999999999999778e-01
7.065399999999999636e+01 -1.238400000000000034e+01 -5.929399999999999693e+01 1.827356999999999942e+01 -3.500000000000000333e-01
7.065500000000000114e+01 -2.433599999999999852e+01 -8.915600000000000591e+01 1.157002999999999915e+01 -3.499999999999999778e-01
7.065500000000000114e+01 -2.469699999999999918e+01 -8.746200000000000330e+01 2.725613000000000063e+00 -3.500000000000000333e-01
7.065600000000000591e+01 -2.692699999999999960e+01 -8.395199999999999818e+01 4.203963000000000005e-01 -2.541747769035280213e-01
7.065600000000000591e+01 -2.692699999999999960e+01 -8.290200000000000102e+01 -6.559566999999999481e-02 -3.499999999999999778e-01
7.065699999999999648e+01 -1.201900000000000013e+01 -8.763800000000000523e+01 1.901011000000000095e+01 -3.499999999999999778e-01
7.065699999999999648e+01 -2.014900000000000091e+01 -8.789700000000000557e+01 3.447860000000000014e+01 -3.499999999999999778e-01
7.065800000000000125e+01 -9.753399999999999181e+00 -9.121200000000000330e+01 -2.611245999999999867e+01 -3.499999999999999778e-01
7.067000000000000171e+01 -1.242300000000000004e+01 -8.568600000000000705e+01 4.239990999999999843e+01 -3.500000000000000333e-01
7.067300000000000182e+01 -1.606299999999999883e+01 -6.898300000000000409e+01 1.157516999999999996e+01 -3.500000000000000333e-01
7.067400000000000659e+01 -1.391799999999999926e+01 -8.257200000000000273e+01 1.482906999999999975e+01 -3.499999999999999778e-01
7.067499999999999716e+01 -1.573099999999999987e+01 -8.963700000000000045e+01 -5.902528000000000219e+00 -3.499999999999999778e-01
7.067700000000000671e+01 -3.478099999999999969e+00 -8.674899999999999523e+01 -2.648143000000000136e+00 -3.499999999999999778e-01
7.067900000000000205e+01 -1.404700000000000060e+01 -8.437199999999999989e+01 1.027287999999999979e+00 -3.499999999999999778e-01
7.068200000000000216e+01 -1.066200000000000081e+01 -8.512800000000000011e+01 4.804344999999999999e+01 -3.499999999999999778e-01
7.068800000000000239e+01 -1.919800000000000040e+01 -6.753799999999999670e+01 2.394757999999999942e+00 -3.500000000000000333e-01
7.069499999999999318e+01 -2.308200000000000074e+01 -8.999599999999999511e+01 7.902306000000000274e+00 -3.499999999999999778e-01
7.069499999999999318e+01 -1.317600000000000016e+01 -6.313400000000000034e+01 6.696957000000000271e+00 -3.499999999999999778e-01
7.070000000000000284e+01 -2.927299999999999969e+01 -6.651000000000000512e+01 1.698158000000000056e+00 -2.579638113536578681e-01
7.070000000000000284e+01 -2.612699999999999889e+01 -6.561599999999999966e+01 5.045602999999999838e+00 -2.570929773933361417e-01
7.070000000000000284e+01 -2.578200000000000003e+01 -6.639900000000000091e+01 7.307898999999999923e+00 -3.499999999999999778e-01
7.070199999999999818e+01 -1.949500000000000099e+01 -8.717300000000000182e+01 1.940642000000000067e+01 -3.500000000000000333e-01
7.070199999999999818e+01 -1.862900000000000134e+01 -8.717300000000000182e+01 9.419126000000000332e+00 -3.499999999999999778e-01
7.070399999999999352e+01 -9.605600000000000804e+00 -7.362900000000000489e+01 -5.595413000000000192e-01 -3.500000000000000888e-01
7.070399999999999352e+01 -2.758999999999999986e+01 -7.478100000000000591e+01 3.490323000000000064e+01 -3.499999999999999778e-01
7.070399999999999352e+01 -2.749899999999999878e+01 -7.319799999999999329e+01 4.106085000000000207e+00 -3.499999999999999778e-01
7.070399999999999352e+01 -2.738100000000000023e+01 -7.404500000000000171e+01 1.401721000000000039e+01 -3.499999999999999778e-01
7.070399999999999352e+01 -2.190500000000000114e+01 -6.634099999999999397e+01 7.281079000000000079e+00 -3.499999999999999778e-01
7.070399999999999352e+01 -1.990299999999999869e+01 -6.998600000000000421e+01 9.134420000000000428e+00 -3.500000000000000333e-01
7.070399999999999352e+01 -1.990299999999999869e+01 -6.912099999999999511e+01 8.017424999999999358e+00 -3.499999999999999778e-01
7.070600000000000307e+01 -2.492399999999999949e+01 -6.708400000000000318e+01 1.435397999999999996e+01 -3.499999999999999778e-01
7.070699999999999363e+01 -4.937500000000000000e+00 -7.767199999999999704e+01 -3.734468999999999994e+01 -3.499999999999999778e-01
7.070799999999999841e+01 -2.444000000000000128e+01 -8.820000000000000284e+01 4.428495999999999810e+01 -3.499999999999999778e-01
7.070999999999999375e+01 -2.034700000000000131e+01 -6.390400000000000347e+01 1.461300999999999961e+00 -3.499999999999999778e-01
7.071200000000000330e+01 -1.208000000000000007e+01 -5.999399999999999977e+01 9.999475000000000335e+00 -3.499999999999999778e-01
7.073799999999999955e+01 -1.605999999999999872e+01 -8.887699999999999534e+01 -3.400657000000000263e-01 -3.500000000000000333e-01
7.073999999999999488e+01 -2.176599999999999824e+01 -8.925499999999999545e+01 4.268383000000000038e+01 -3.499999999999999778e-01
7.074500000000000455e+01 -1.931299999999999883e+01 -7.075499999999999545e+01 1.465191000000000088e+01 -3.499999999999999778e-01
7.074500000000000455e+01 -1.844699999999999918e+01 -7.075499999999999545e+01 6.116649999999999920e+00 -3.499999999999999778e-01
7.074599999999999511e+01 -1.551900000000000013e+01 -8.234399999999999409e+01 -1.317916999999999916e+01 -3.499999999999999778e-01
7.075199999999999534e+01 -2.071999999999999886e+01 -6.465699999999999648e+01 3.302239000000000146e+00 -3.499999999999999778e-01
7.075199999999999534e+01 -2.319900000000000162e+01 -6.710999999999999943e+01 1.117043999999999926e+01 -3.500000000000000333e-01
7.076399999999999579e+01 -2.877600000000000158e+00 -7.855700000000000216e+01 1.341991999999999940e+01 -3.500000000000000333e-01
7.076500000000000057e+01 -8.915699999999999292e+00 -6.365500000000000114e+01 5.707836000000000354e+00 -3.499999999999999778e-01
7.076600000000000534e+01 -1.781599999999999895e+01 -8.742600000000000193e+01 4.073639000000000010e+00 -3.499999999999999778e-01
7.077200000000000557e+01 -2.909900000000000020e+01 -6.509799999999999898e+01 7.733622000000000440e+00 -2.579550734329430495e-01
7.078799999999999670e+01 -2.130199999999999960e+01 -7.051000000000000512e+01 -1.453138000000000041e+00 -3.499999999999999778e-01
7.079000000000000625e+01 -2.763200000000000145e+01 -6.481000000000000227e+01 3.486209000000000113e+00 -2.575653663657063719e-01
7.079399999999999693e+01 -2.116400000000000148e+01 -6.529600000000000648e+01 4.169477999999999795e+00 -3.499999999999999778e-01
7.079600000000000648e+01 -1.636400000000000077e+01 -8.817700000000000671e+01 3.782494999999999941e+00 -3.499999999999999778e-01
7.079600000000000648e+01 -1.482799999999999940e+01 -8.971200000000000330e+01 1.055924000000000085e+00 -3.500000000000000333e-01
7.079800000000000182e+01 -1.436599999999999966e+01 -6.809600000000000364e+01 4.306588999999999778e+00 -3.500000000000000333e-01
7.079999999999999716e+01 -1.544699999999999918e+01 -7.996200000000000330e+01 9.133245999999999754e+00 -3.499999999999999778e-01
7.079999999999999716e+01 -1.404700000000000060e+01 -7.996200000000000330e+01 6.900241000000000291e+00 -3.499999999999999778e-01
7.080500000000000682e+01 -9.938900000000000290e+00 -6.378999999999999915e+01 3.681821999999999928e+00 -3.500000000000000333e-01
7.080599999999999739e+01 -1.218299999999999983e+01 -8.470300000000000296e+01 1.408787000000000056e+01 -3.500000000000000333e-01
7.080700000000000216e+01 -2.781400000000000006e+01 -7.147299999999999898e+01 -9.394656000000000118e-01 -3.499999999999999778e-01
7.080700000000000216e+01 -2.781400000000000006e+01 -7.060699999999999932e+01 -1.281333999999999973e+00 -3.500000000000000333e-01
7.080700000000000216e+01 -1.759900000000000020e+00 -8.009300000000000352e+01 -1.043355999999999995e+01 -3.500000000000000333e-01
7.080899999999999750e+01 -1.518999999999999950e+01 -8.310399999999999920e+01 -2.264290000000000092e+01 -3.499999999999999778e-01
7.082500000000000284e+01 -1.303899999999999970e+01 -6.894799999999999329e+01 6.635087000000000401e+00 -3.500000000000000333e-01
7.082500000000000284e+01 -1.163899999999999935e+01 -6.894799999999999329e+01 1.187701999999999991e+01 -3.499999999999999778e-01
7.082599999999999341e+01 -2.027599999999999980e+01 -6.541899999999999693e+01 3.601420000000000066e+00 -3.500000000000000333e-01
7.083100000000000307e+01 -1.360200000000000031e+01 -8.506600000000000250e+01 -2.847310999999999925e+00 -3.499999999999999778e-01
7.083599999999999852e+01 -8.547299999999999898e+00 -6.280499999999999972e+01 4.286283000000000065e+00 -3.499999999999999778e-01
7.084399999999999409e+01 -1.545800000000000018e+01 -8.386299999999999955e+01 -2.252415999999999840e+01 -3.500000000000000333e-01
7.084399999999999409e+01 -2.044599999999999973e+00 -7.928700000000000614e+01 1.098271000000000086e+01 -3.499999999999999778e-01
7.084699999999999420e+01 -4.829399999999999665e-02 -8.749699999999999989e+01 -6.037461000000000411e+00 -3.500000000000000333e-01
7.084699999999999420e+01 -4.829399999999999665e-02 -8.655700000000000216e+01 -1.990362000000000009e+01 -3.499999999999999778e-01
7.085099999999999909e+01 -1.359600000000000009e+01 -8.356600000000000250e+01 6.756044000000000160e+00 -3.500000000000000333e-01
7.085099999999999909e+01 -1.180799999999999983e+01 -8.356600000000000250e+01 2.950885999999999854e+01 -3.500000000000000333e-01
7.085099999999999909e+01 -1.033600000000000030e+01 -8.356600000000000250e+01 1.592674000000000056e+01 -3.499999999999999778e-01
7.085299999999999443e+01 -1.158699999999999974e+01 -8.852400000000000091e+01 2.765550999999999959e+01 -3.499999999999999778e-01
7.085899999999999466e+01 -1.006999999999999895e+00 -9.053100000000000591e+01 4.571936999999999784e+01 -1.651765676004388617e-01
7.085999999999999943e+01 -8.926000000000000156e+00 -7.142000000000000171e+01 -5.811538999999999788e+00 -3.499999999999999778e-01
7.086700000000000443e+01 -4.272999999999999687e+00 -9.264900000000000091e+01 -3.655742000000000047e+00 -1.628214748619535857e-01
7.086700000000000443e+01 -2.753000000000000114e+00 -9.264900000000000091e+01 -5.459343999999999753e+00 -1.640222086510429444e-01
7.087300000000000466e+01 -8.832000000000000739e+00 -6.199900000000000233e+01 7.075451000000000157e+00 -3.499999999999999778e-01
7.088100000000000023e+01 -9.140700000000000713e+00 -6.145600000000000307e+01 5.872500999999999749e+00 -3.499999999999999778e-01
7.088599999999999568e+01 -4.214100000000000179e+00 -8.674899999999999523e+01 6.021684999999999732e+00 -3.499999999999999778e-01
7.088599999999999568e+01 -2.741999999999999993e+00 -8.674899999999999523e+01 -9.065350999999999715e+00 -3.499999999999999778e-01
7.088800000000000523e+01 -1.068599999999999994e+01 -6.050500000000000256e+01 1.151923999999999992e+01 -3.499999999999999778e-01
7.088800000000000523e+01 -1.477999999999999936e+01 -6.151800000000000068e+01 -1.669917000000000096e+00 -3.499999999999999778e-01
7.088800000000000523e+01 -1.477999999999999936e+01 -6.057800000000000296e+01 -9.607715999999999923e+00 -3.500000000000000333e-01
7.088899999999999579e+01 -9.058699999999999974e+00 -7.035999999999999943e+01 -3.712251999999999885e+00 -3.499999999999999778e-01
7.089000000000000057e+01 -7.039600000000000080e+00 -7.647199999999999420e+01 -2.388663000000000025e+01 -3.499999999999999778e-01
7.089300000000000068e+01 -9.081699999999999662e+00 -7.279500000000000171e+01 -2.357321999999999917e+00 -3.499999999999999778e-01
7.090000000000000568e+01 -6.256000000000000227e+00 -7.716899999999999693e+01 -2.073085000000000022e+01 -3.499999999999999778e-01
7.090000000000000568e+01 -2.787000000000000099e+01 -7.528799999999999670e+01 1.362734000000000023e+01 -3.499999999999999778e-01
7.090200000000000102e+01 -2.140399999999999991e+01 -8.865600000000000591e+01 1.662002999999999986e+01 -3.499999999999999778e-01
7.090200000000000102e+01 -1.515499999999999936e+01 -8.456300000000000239e+01 -2.123730000000000118e+01 -3.499999999999999778e-01
7.090900000000000603e+01 -1.313499999999999979e+01 -8.589600000000000080e+01 -1.879780999999999835e+01 -3.499999999999999778e-01
7.090900000000000603e+01 -1.150500000000000078e+01 -8.286599999999999966e+01 2.444410999999999845e+01 -3.499999999999999778e-01
7.090900000000000603e+01 -1.064000000000000057e+01 -8.286599999999999966e+01 2.031779999999999831e+01 -3.499999999999999778e-01
7.090999999999999659e+01 -1.174399999999999977e+01 -9.181799999999999784e+01 -8.069404000000000465e+00 -3.500000000000000333e-01
