1.235399999999999920e+01 -1.863500000000000156e+01 -6.681000000000000227e+01 1.351042999999999950e+01 -3.002394672497253891e-01
1.235399999999999920e+01 -1.296799999999999997e+01 -5.374199999999999733e+01 5.292375999999999969e+00 -3.118759880717487665e-01
1.235399999999999920e+01 4.755900000000000127e-01 -9.130599999999999739e+01 3.484703999999999802e+00 -2.994523325138859215e-01
1.235899999999999999e+01 -1.287100000000000044e+01 -7.515200000000000102e+01 -1.144652999999999921e+01 -3.006315085936572262e-01
1.236200000000000010e+01 -2.219000000000000128e+01 -6.171200000000000330e+01 -5.253343999999999792e-01 -2.849559210259995923e-01
1.236299999999999955e+01 -1.386599999999999966e+01 -7.926999999999999602e+01 -3.852243000000000084e+00 -3.000602207214087547e-01
1.236299999999999955e+01 -1.991300000000000026e+01 -6.863599999999999568e+01 7.339885999999999910e-01 -2.993921791096182394e-01
1.236400000000000077e+01 -2.248400000000000176e+00 -1.002099999999999937e+02 5.349171999999999816e-01 -2.995663795915492478e-01
1.236700000000000088e+01 1.052899999999999991e+01 -7.979800000000000182e+01 3.130905999999999967e+00 -2.616404265690512321e-01
1.236800000000000033e+01 9.654500000000000304e-01 -9.201999999999999602e+01 8.587799000000000404e+00 -2.994404049915149746e-01
1.236800000000000033e+01 9.654500000000000304e-01 -9.062000000000000455e+01 -4.978843000000000019e-01 -2.994197904875789962e-01
1.236800000000000033e+01 1.830699999999999994e+00 -9.201999999999999602e+01 5.690148999999999901e+00 -2.993891035836974690e-01
1.236800000000000033e+01 1.830699999999999994e+00 -9.062000000000000455e+01 -3.762227000000000210e-01 -3.770148520700064010e-01
1.237100000000000044e+01 -4.352999999999999758e+00 -5.644700000000000273e+01 -1.060469000000000106e+00 -3.618085855802205542e-01
1.237100000000000044e+01 2.619499999999999940e+00 -1.030000000000000000e+02 2.452611999999999792e+00 -2.994711626132596782e-01
1.237199999999999989e+01 9.083000000000000185e+00 -6.999500000000000455e+01 -3.059026999999999941e+00 -2.653731564347288630e-01
1.237800000000000011e+01 8.987399999999999167e+00 -6.657699999999999818e+01 2.647457999999999756e-01 -1.130188363108329064e-03
1.238499999999999979e+01 2.562100000000000044e+00 -1.086099999999999994e+02 4.254925000000000068e+00 -2.995076881330992480e-01
1.238599999999999923e+01 -2.271499999999999986e+01 -5.838400000000000034e+01 4.626603000000000243e+00 -2.824917334214843700e-01
1.238700000000000045e+01 -9.336399999999999366e+00 -8.162699999999999534e+01 -5.317047999999999774e+00 -3.000749159405547428e-01
1.239199999999999946e+01 -8.309999999999999609e-01 -1.103199999999999932e+02 4.921120000000000161e+00 -2.995735411772074697e-01
1.239300000000000068e+01 -1.830600000000000094e+01 -7.005400000000000205e+01 -1.841247999999999996e+00 -2.998559216380590753e-01
1.240000000000000036e+01 2.863700000000000134e+00 -5.937500000000000000e+01 -2.523562999999999779e+00 1.374090229823745875e-03
1.240000000000000036e+01 2.863700000000000134e+00 -5.843500000000000227e+01 -1.050347999999999971e+01 -1.602082455497792378e-03
1.240099999999999980e+01 4.813000000000000056e-01 -8.964199999999999591e+01 -8.617477000000000054e-01 -2.994219547872973841e-01
1.240199999999999925e+01 9.687699999999999534e+00 -7.141200000000000614e+01 -1.022979999999999912e+01 -2.647551328267576665e-01
1.240399999999999991e+01 -5.883700000000000152e+00 -8.943000000000000682e+01 -1.719153000000000020e+01 -2.997041443280266670e-01
1.240499999999999936e+01 9.996100000000000207e+00 -9.352400000000000091e+01 -4.097894000000000148e+00 -2.593517756304192790e-01
1.240600000000000058e+01 9.034399999999999764e+00 -8.976200000000000045e+01 2.026033999999999935e+01 -2.594412276994456645e-01
1.240799999999999947e+01 -1.236500000000000021e+01 -7.578900000000000148e+01 -4.703795999999999644e+00 -3.006588666052444347e-01
1.241399999999999970e+01 1.090499999999999936e+01 -7.253100000000000591e+01 7.162715000000000387e+00 -2.646937701159695067e-01
1.241799999999999926e+01 9.206699999999999662e+00 -6.949299999999999500e+01 2.347434999999999938e+00 -2.657745321583710463e-01
1.242600000000000016e+01 2.134100000000000108e+00 -9.131999999999999318e+01 4.033763000000000432e+00 -3.770104534885588277e-01
1.242900000000000027e+01 -4.656399999999999650e+00 -5.574699999999999989e+01 1.914053999999999922e+00 -3.615823233248380841e-01
1.242999999999999972e+01 -6.293400000000000105e+00 -9.331499999999999773e+01 -1.120865000000000000e+00 -2.996953035799171938e-01
1.243599999999999994e+01 -2.206300000000000150e+00 -1.094000000000000057e+02 4.608793999999999613e+00 -2.995945245603913731e-01
1.243599999999999994e+01 5.443299999999999805e-01 -1.094000000000000057e+02 3.309175000000000200e+00 -2.995458760368525652e-01
1.243800000000000061e+01 -1.459699999999999953e+01 -7.248300000000000409e+01 7.336662999999999712e+00 -3.006526374433842741e-01
1.243800000000000061e+01 7.877900000000000347e+00 -8.476300000000000523e+01 3.051791000000000142e+00 -2.596668153574509530e-01
1.244400000000000084e+01 -3.013700000000000045e+00 -8.547700000000000387e+01 -3.579203999999999830e+00 -2.995910526289901066e-01
1.244400000000000084e+01 -2.138800000000000168e+01 -5.745400000000000063e+01 1.096360999999999919e+01 -2.829752802622170216e-01
1.244599999999999973e+01 4.081000000000000405e+00 -1.085100000000000051e+02 -2.756892000000000120e+00 -2.994825875564769424e-01
1.244800000000000040e+01 9.842100000000000293e+00 -8.251399999999999579e+01 5.496990000000000265e+00 -2.607126327452539138e-01
1.244800000000000040e+01 1.009600000000000009e+01 -8.162000000000000455e+01 1.485172000000000025e+01 -2.609929680070448565e-01
1.245400000000000063e+01 -1.594799999999999995e+00 -1.008400000000000034e+02 -2.054434000000000093e+00 -2.995522325270324471e-01
1.245700000000000074e+01 -1.183600000000000030e+01 -8.154000000000000625e+01 -1.874552999999999869e+01 -3.002181611134469574e-01
1.245800000000000018e+01 1.191600000000000037e+01 -7.866800000000000637e+01 1.320286000000000071e+00 -2.624489948159798858e-01
1.246400000000000041e+01 -2.004899999999999949e+01 -6.663400000000000034e+01 5.722851999999999606e+00 -2.996284691817446832e-01
1.246700000000000053e+01 8.635899999999999466e+00 -6.396300000000000097e+01 -8.946498000000000062e+00 -4.051088173321198103e-03
1.247100000000000009e+01 -9.073299999999999699e+00 -8.236700000000000443e+01 -6.721637999999999780e-01 -3.000269499829976705e-01
1.247100000000000009e+01 -1.223299999999999943e-01 -8.842199999999999704e+01 -7.045847000000000193e+00 -2.994184122716728180e-01
1.247199999999999953e+01 1.677000000000000046e+00 -1.086500000000000057e+02 5.432930999999999955e+00 -2.995227317735824069e-01
1.248000000000000043e+01 8.726900000000000546e+00 -9.437900000000000489e+01 3.593740999999999985e+01 -2.589924320588891660e-01
1.248199999999999932e+01 -1.854599999999999937e+01 -5.674699999999999989e+01 3.415894000000000208e+00 -2.880731639594006355e-01
1.248499999999999943e+01 -1.565399999999999991e+01 -7.147700000000000387e+01 3.016175000000000139e+01 -3.005427836316171275e-01
1.249799999999999933e+01 2.377899999999999903e+00 -1.020999999999999943e+02 3.505331999999999892e-01 -2.994699983260469267e-01
1.250099999999999945e+01 7.512299999999999756e+00 -8.711700000000000443e+01 2.096746999999999872e+01 -2.592458126742384072e-01
1.250799999999999912e+01 2.742999999999999883e+00 -1.011899999999999977e+02 -1.989624000000000115e-01 -2.994562619665490089e-01
1.250900000000000034e+01 -2.080999999999999872e+01 -5.718099999999999739e+01 1.057371000000000016e+01 -2.834725341583626546e-01
1.250900000000000034e+01 9.209099999999999397e+00 -8.384099999999999397e+01 7.047456999999999638e+00 -2.602262220398493531e-01
1.250900000000000034e+01 9.554100000000000037e+00 -8.305800000000000693e+01 7.501759999999999984e+00 -2.604829781882499473e-01
1.251200000000000045e+01 -1.291400000000000103e+00 -1.015400000000000063e+02 -3.885152999999999857e+00 -2.995475861983058485e-01
1.251299999999999990e+01 3.485100000000000087e+00 -9.847499999999999432e+01 9.104108000000000089e+00 -3.634725521463231801e-01
1.251699999999999946e+01 -1.249300000000000033e+01 -8.162199999999999989e+01 -1.218884000000000079e+01 -3.001367664963041637e-01
1.251699999999999946e+01 -3.238500000000000156e+00 -9.288899999999999579e+01 -2.199098999999999915e+00 -2.995848242017358776e-01
1.251800000000000068e+01 -2.518400000000000194e+00 -9.402500000000000568e+01 -3.032404999999999795e+00 -2.995608015595112583e-01
1.251999999999999957e+01 -7.847999999999999865e+00 -8.478199999999999648e+01 -1.790906000000000109e+00 -2.998752861621175048e-01
1.252100000000000080e+01 -1.013100000000000023e+01 -5.331499999999999773e+01 2.946343999999999852e+01 -2.891650651538506533e-01
1.252299999999999969e+01 -1.699899999999999878e+01 -7.065300000000000580e+01 7.707442999999999600e+00 -3.002723975426905278e-01
1.252399999999999913e+01 -2.841499999999999915e+00 -1.062900000000000063e+02 1.405795999999999957e+01 -2.995972857016767077e-01
1.252800000000000047e+01 7.116999999999999993e+00 -6.406100000000000705e+01 -3.050900999999999996e+01 -2.284726935736564133e-03
1.252999999999999936e+01 1.810700000000000087e-01 -8.912199999999999989e+01 -3.042027000000000037e+00 -2.994001517931798584e-01
1.254299999999999926e+01 -1.215600000000000058e+01 -5.361399999999999721e+01 3.765656000000000003e-01 -3.073639583053473512e-01
1.254800000000000004e+01 1.134500000000000064e+01 -7.329600000000000648e+01 7.219776000000000415e+00 -2.643964464265274872e-01
1.255000000000000071e+01 9.255499999999999616e+00 -6.854800000000000182e+01 8.983010000000000161e+00 8.490813240935724112e-04
1.255199999999999960e+01 -2.714999999999999858e+00 -5.592000000000000171e+01 2.584322000000000008e-01 -3.621404727711672877e-01
1.255199999999999960e+01 2.971499999999999808e+00 -1.033400000000000034e+02 9.047817999999999694e-01 -2.994666389168115783e-01
1.255300000000000082e+01 -4.371100000000000207e+00 -9.213100000000000023e+01 -1.278625000000000078e+01 -2.996275330315281704e-01
1.255899999999999928e+01 -1.073399999999999910e+00 -1.049800000000000040e+02 -8.759666000000000674e-02 -2.995563828147888019e-01
1.256199999999999939e+01 -3.009999999999999787e+00 -9.029300000000000637e+01 -7.965703000000000422e+00 -2.995778252852387413e-01
1.256300000000000061e+01 -1.937099999999999866e+01 -6.681000000000000227e+01 1.014919000000000082e+01 -2.999984323567946864e-01
1.256600000000000072e+01 3.388399999999999856e+00 -1.003599999999999994e+02 -6.418000000000000371e-01 -3.634439807724536009e-01
1.256600000000000072e+01 -2.144699999999999918e+01 -6.744899999999999807e+01 2.550856000000000234e-01 -2.989632123336105618e-01
1.256900000000000084e+01 -6.753999999999999559e+00 -1.020799999999999983e+02 8.582214000000000231e-01 -2.996837764127824877e-01
1.257099999999999973e+01 3.181700000000000195e+00 -9.917499999999999716e+01 7.017610999999999599e+00 -3.634513276636484602e-01
1.257600000000000051e+01 9.793400000000000105e+00 -7.979800000000000182e+01 6.723122000000000043e+00 -2.612663282371292528e-01
1.258699999999999974e+01 5.685999999999999943e+00 -6.406699999999999307e+01 -7.924001999999999768e+00 1.351445784610614273e-03
1.258799999999999919e+01 -2.152299999999999969e+01 -6.676900000000000546e+01 3.880404000000000075e-01 -2.989867062843390988e-01
1.258900000000000041e+01 -1.084600000000000009e+00 -1.040999999999999943e+02 -5.093731000000000231e-01 -2.995530781521899000e-01
1.258900000000000041e+01 1.148799999999999955e+01 -7.433899999999999864e+01 -1.070584999999999898e+00 -2.639150748064243990e-01
1.258999999999999986e+01 9.531800000000000495e+00 -6.420099999999999341e+01 -2.012097999999999942e+00 -3.420492297311392756e-03
1.259099999999999930e+01 1.021499999999999986e+01 -7.888299999999999557e+01 -1.242512999999999979e+00 -2.616765802188736889e-01
1.259200000000000053e+01 -5.090600000000000236e+00 -1.057500000000000000e+02 2.982365999999999850e+00 -2.996441172948859921e-01
1.259200000000000053e+01 -3.229400000000000048e+00 -1.087099999999999937e+02 2.408726000000000145e+00 -2.996116933710567531e-01
1.259399999999999942e+01 -1.349200000000000088e+01 -7.840500000000000114e+01 -7.742771999999999988e-01 -3.002313500317878026e-01
1.259500000000000064e+01 9.928300000000000125e+00 -6.459099999999999397e+01 2.441152000000000211e+00 -2.916952684561511210e-03
1.260699999999999932e+01 -2.567200000000000149e+00 -9.655500000000000682e+01 9.847538999999999376e+00 -2.995664701418608855e-01
1.260699999999999932e+01 1.063599999999999923e+01 -7.796800000000000352e+01 -3.874795999999999907e+00 -2.621177977748426757e-01
1.260699999999999932e+01 1.150099999999999945e+01 -7.796800000000000352e+01 -3.599397000000000013e-02 -2.624562279161522516e-01
1.260800000000000054e+01 -7.688699999999999868e+00 -9.025700000000000500e+01 -1.344638000000000000e+00 -2.997775472707219224e-01
1.261100000000000065e+01 7.252299999999999969e+00 -9.534900000000000375e+01 -1.596670999999999951e+00 -2.585879918073762940e-01
1.261200000000000010e+01 -4.525799999999999823e-01 -8.970799999999999841e+01 2.984513000000000194e+00 -2.994777123794959417e-01
1.261400000000000077e+01 -1.423899999999999944e+00 -5.563600000000000279e+01 5.477946000000000026e+01 -2.675922125465199919e-01
1.261400000000000077e+01 -4.370000000000000107e+00 -8.957299999999999329e+01 -1.875835000000000008e+01 -2.996363983021229638e-01
1.261800000000000033e+01 -1.207000000000000073e+00 -1.032800000000000011e+02 -5.520245000000000068e+00 -2.995524721709300620e-01
1.262500000000000000e+01 -2.180799999999999983e+01 -6.596299999999999386e+01 8.305067000000000421e-01 -2.989348163751433529e-01
1.263199999999999967e+01 3.649999999999999911e+00 -1.011200000000000045e+02 -8.234555000000000069e-01 -3.634491252116970328e-01
1.263499999999999979e+01 1.398099999999999898e+00 -9.131999999999999318e+01 2.804769999999999985e+00 -2.993421174666738849e-01
1.263700000000000045e+01 -2.107799999999999940e+01 -6.829900000000000659e+01 2.159794999999999909e-01 -2.991015717358299630e-01
1.264100000000000001e+01 2.812999999999999945e-01 -5.574900000000000233e+01 -8.523403000000000063e+00 -2.793755082102699072e-01
1.264199999999999946e+01 1.206700000000000017e+01 -7.738100000000000023e+01 1.376983999999999986e+00 -2.628589187863740184e-01
1.265099999999999980e+01 -3.899500000000000188e+00 -5.571399999999999864e+01 -9.004505999999999899e-01 -3.617949793431586847e-01
1.265099999999999980e+01 -5.501900000000000013e+00 -9.325799999999999557e+01 -1.834897999999999918e+00 -2.996663687253698360e-01
1.265199999999999925e+01 -1.349000000000000021e+01 -7.467499999999999716e+01 -5.912620999999999682e+00 -3.006452830266596044e-01
1.265399999999999991e+01 9.624900000000000233e+00 -6.529099999999999682e+01 -7.790076999999999696e-01 -1.917789443917135945e-03
1.265399999999999991e+01 -6.278699999999999726e+00 -1.065199999999999960e+02 1.647358000000000100e+00 -2.996707015052723633e-01
1.265799999999999947e+01 4.601300000000000168e+00 -1.058799999999999955e+02 7.935245000000000104e+00 -3.634307020772712393e-01
1.265799999999999947e+01 9.171300000000000452e+00 -6.755800000000000693e+01 2.046768000000000143e+01 3.304440540514903845e-04
1.266099999999999959e+01 3.553900000000000059e+00 -6.301800000000000068e+01 3.929914999999999736e+01 -2.791279727281241740e-01
1.266200000000000081e+01 -7.649799999999999933e+00 -8.965099999999999625e+01 -2.546107000000000120e+00 -2.997829973628908795e-01
1.266699999999999982e+01 -5.571500000000000341e+00 -1.078900000000000006e+02 1.096608000000000027e+00 -2.996566751421174124e-01
1.266799999999999926e+01 -1.633799999999999919e+00 -8.974200000000000443e+01 4.394855999999999763e-01 -2.995230734587876475e-01
1.267300000000000004e+01 -6.846000000000000085e+00 -8.574500000000000455e+01 -1.692155000000000076e+00 -2.997974146763251468e-01
1.267300000000000004e+01 -5.145999999999999908e+00 -8.574500000000000455e+01 7.482085999999999792e+00 -2.997024104557648450e-01
1.267600000000000016e+01 -7.149300000000000210e+00 -9.351300000000000523e+01 -6.786248999999999754e-01 -2.997266571531173596e-01
1.267600000000000016e+01 -6.018900000000000361e+00 -1.074500000000000028e+02 1.109942999999999902e+00 -2.996656072294148765e-01
1.267699999999999960e+01 -1.953000000000000069e+00 -1.060000000000000000e+02 9.314819999999999212e+00 -2.995783027407161736e-01
1.268900000000000006e+01 -3.162999999999999812e+00 -9.909799999999999898e+01 1.031117999999999979e+00 -2.995880166251022048e-01
1.268900000000000006e+01 -3.162999999999999812e+00 -9.814000000000000057e+01 2.009564999999999824e+00 -2.995864569587413095e-01
1.268999999999999950e+01 -1.720400000000000063e+01 -5.474300000000000210e+01 -1.956809000000000154e+01 -2.918372709110068075e-01
1.268999999999999950e+01 2.394000000000000128e+00 -6.013499999999999801e+01 -1.940844999999999931e+00 -2.800165347565127250e-01
1.268999999999999950e+01 2.394000000000000128e+00 -5.767499999999999716e+01 -1.772807999999999851e+01 -1.588743234469458532e-02
1.269100000000000072e+01 -1.039799999999999969e+01 -8.173300000000000409e+01 -3.181203000000000003e+00 -3.001523810941346682e-01
1.270500000000000007e+01 7.445299999999999585e+00 -8.546299999999999386e+01 -7.797258999999999440e-02 -2.593353844172108791e-01
1.270599999999999952e+01 1.046799999999999997e+01 -6.431600000000000250e+01 3.176766000000000201e+00 -3.021019220929853626e-03
1.271299999999999919e+01 -1.600999999999999979e+00 -8.632999999999999829e+01 -4.964000999999999664e+00 -2.994447829589504950e-01
1.271599999999999930e+01 -4.160000000000000142e+00 -1.086800000000000068e+02 2.007846999999999937e+00 -2.996297050055529709e-01
1.271899999999999942e+01 -1.590799999999999947e+01 -5.433100000000000307e+01 -1.164980000000000082e+01 -2.960988268658846789e-01
1.271899999999999942e+01 -1.450799999999999912e+01 -5.433100000000000307e+01 3.502492999999999856e+00 -3.126833477427800045e-01
1.272100000000000009e+01 -7.794999999999999929e+00 -5.296099999999999852e+01 9.910517000000000465e+00 -3.778316505296600569e-01
1.272100000000000009e+01 -6.094999999999999751e+00 -5.296099999999999852e+01 1.694065000000000154e+01 -3.598820924072307914e-01
1.272499999999999964e+01 -5.910300000000000331e+00 -1.056700000000000017e+02 2.062165999999999944e+00 -2.996623624025906429e-01
1.273000000000000043e+01 5.659099999999999575e+00 -9.640900000000000603e+01 1.789590000000000014e+00 -3.635464952377971404e-01
1.274799999999999933e+01 -2.164600000000000080e+01 -6.036699999999999733e+01 7.819391999999999676e+00 -2.844513949345753301e-01
1.274799999999999933e+01 -2.164600000000000080e+01 -5.950099999999999767e+01 1.168908000000000058e+01 -2.839481890922045393e-01
1.275099999999999945e+01 -2.190700000000000003e+01 -5.840200000000000102e+01 1.143816999999999950e+01 -2.828524003324571212e-01
1.275200000000000067e+01 -1.753200000000000003e+01 -5.551299999999999812e+01 -1.303750999999999927e+01 -2.901242204625189003e-01
1.275500000000000078e+01 -1.652599999999999980e+01 -7.083700000000000330e+01 2.123123999999999967e+01 -3.004866893229910518e-01
1.276099999999999923e+01 -1.681000000000000050e+00 -1.102500000000000000e+02 2.866214999999999957e+00 -2.995882935895315957e-01
1.276099999999999923e+01 1.899999999999999953e-02 -1.102500000000000000e+02 4.764950999999999937e+00 -2.995589640075020932e-01
1.276200000000000045e+01 -1.340700000000000003e+01 -8.185500000000000398e+01 -3.064181000000000044e+00 -3.000433493746197944e-01
1.276200000000000045e+01 -3.061300000000000132e+00 -9.976800000000000068e+01 5.486940999999999624e-01 -2.995865854129288186e-01
1.276200000000000045e+01 -2.566300000000000026e+00 -1.006800000000000068e+02 -1.564476999999999951e-01 -2.995759241761618563e-01
1.276200000000000045e+01 -2.194900000000000162e+01 -6.125300000000000011e+01 -1.962590999999999974e+00 -2.846281734969524080e-01
1.276699999999999946e+01 6.887699999999999712e+00 -9.604999999999999716e+01 6.128137999999999641e-01 -3.635623870168632754e-01
1.276800000000000068e+01 -2.799199999999999910e+00 -9.732699999999999818e+01 3.895917999999999992e+00 -2.995747712826670739e-01
1.277500000000000036e+01 3.175600000000000200e+00 -1.018900000000000006e+02 -9.363256000000000356e-02 -3.634266825174271576e-01
1.277699999999999925e+01 9.461800000000000210e+00 -9.015999999999999659e+01 1.415602999999999945e+01 -2.594062528110069321e-01
1.279199999999999982e+01 -9.364000000000000767e+00 -5.335000000000000142e+01 7.674345999999999890e+01 -3.773874847337888028e-01
1.279299999999999926e+01 -3.758000000000000007e+00 -8.551999999999999602e+01 -3.005567999999999795e+00 -2.996292894070070600e-01
1.280000000000000071e+01 -7.255700000000000038e+00 -8.893899999999999295e+01 -3.653312999999999811e+00 -2.997733403100905636e-01
1.280000000000000071e+01 -6.316300000000000026e+00 -8.893899999999999295e+01 -6.015120999999999718e+00 -2.997288067938089773e-01
1.280100000000000016e+01 -1.463700000000000045e+01 -8.103199999999999648e+01 -3.009605000000000086e+00 -2.999249648780019095e-01
1.280100000000000016e+01 -1.463700000000000045e+01 -8.009199999999999875e+01 -4.352018000000000164e+00 -2.999755199954922125e-01
1.281000000000000050e+01 -1.867099999999999937e+01 -6.939499999999999602e+01 -1.548124000000000056e+00 -3.000005117824562917e-01
1.281199999999999939e+01 -2.010999999999999943e+01 -5.712199999999999989e+01 7.988862000000000130e+00 -2.840835241395308630e-01
1.281499999999999950e+01 -1.985300000000000153e+01 -6.895300000000000296e+01 -1.898909000000000014e-01 -2.996120675343487139e-01
1.281900000000000084e+01 8.459500000000000242e+00 -8.901600000000000534e+01 1.379809999999999981e+01 -2.592316816325768158e-01
1.282099999999999973e+01 -4.218300000000000161e+00 -5.522899999999999920e+01 1.743972000000000078e+00 -3.616066514515446362e-01
1.282300000000000040e+01 -7.647700000000000387e+00 -1.020799999999999983e+02 1.496610999999999914e+00 -2.997074569602319327e-01
1.282300000000000040e+01 -5.860299999999999621e+00 -1.020799999999999983e+02 8.578909000000000118e-01 -2.996611367983725849e-01
1.283600000000000030e+01 -1.506499999999999950e+01 -7.170199999999999818e+01 2.810023999999999944e+01 -3.007962583115420530e-01
1.284399999999999942e+01 -8.459300000000000708e+00 -9.256199999999999761e+01 -1.135698000000000096e+00 -2.997859838214307349e-01
1.284399999999999942e+01 -8.459300000000000708e+00 -9.151200000000000045e+01 -1.826861000000000068e+00 -2.997972735345650341e-01
1.284500000000000064e+01 -1.251099999999999923e+01 -7.677899999999999636e+01 -3.928465000000000096e+00 -3.006034892957209492e-01
1.285800000000000054e+01 -6.874299999999999855e+00 -9.410800000000000409e+01 -3.577937999999999952e-01 -2.997130705556493302e-01
1.285800000000000054e+01 -5.823699999999999655e+00 -9.410800000000000409e+01 -8.622265999999999542e-01 -2.996750217638680103e-01
1.285899999999999999e+01 4.449099999999999611e+00 -1.011200000000000045e+02 -9.719250999999999863e+00 -3.634965451371487410e-01
1.286299999999999955e+01 1.036100000000000065e+01 -6.529099999999999682e+01 6.252411000000000385e+00 -1.494621919372913100e-03
1.286299999999999955e+01 1.118200000000000038e+01 -6.526099999999999568e+01 -2.297710000000000030e-01 -1.610231549161296027e-03
1.286500000000000021e+01 -4.113199999999999967e+00 -1.056800000000000068e+02 9.268971999999999767e+00 -2.996229988936912059e-01
1.286800000000000033e+01 -2.022699999999999942e+00 -1.015400000000000063e+02 -1.218814999999999982e+00 -2.995651350905886856e-01
1.287700000000000067e+01 -2.313699999999999868e+00 -8.574500000000000455e+01 -4.362732000000000276e+00 -2.994715448541408476e-01
1.288000000000000078e+01 1.060999999999999943e+01 -9.242400000000000659e+01 8.427019999999999511e-01 -2.594585024784805682e-01
1.288000000000000078e+01 1.060999999999999943e+01 -9.137399999999999523e+01 3.746532999999999891e+00 -2.595513781296406863e-01
1.288199999999999967e+01 1.137100000000000044e+01 -6.433400000000000318e+01 1.632308000000000092e-01 -2.628103840628395575e-03
1.289100000000000001e+01 -8.457499999999999574e+00 -5.329800000000000182e+01 1.325614999999999988e+01 -3.777953038039824629e-01
1.289400000000000013e+01 -7.279300000000000104e+00 -1.029300000000000068e+02 1.199367000000000072e+00 -2.996965025269286431e-01
1.289400000000000013e+01 -7.279300000000000104e+00 -1.012300000000000040e+02 1.340267000000000097e+00 -2.996995910881982694e-01
1.289400000000000013e+01 -6.228699999999999903e+00 -1.029300000000000068e+02 1.990150000000000086e+00 -2.996701407860384858e-01
1.289400000000000013e+01 -6.228699999999999903e+00 -1.012300000000000040e+02 1.326429999999999998e+00 -2.996714197131446489e-01
1.291000000000000014e+01 -1.934100000000000108e+01 -5.706799999999999784e+01 4.402648000000000117e+00 -2.853299727757173665e-01
1.291300000000000026e+01 -2.805299999999999905e+00 -1.090900000000000034e+02 4.028152999999999651e+00 -2.996050030606142167e-01
1.291600000000000037e+01 3.321000000000000174e+00 -1.087999999999999972e+02 -6.281498000000000026e+00 -2.994966460019633514e-01
1.291600000000000037e+01 4.613999999999999879e+00 -1.080799999999999983e+02 -1.935710999999999871e+01 -3.634198876495857156e-01
1.291600000000000037e+01 4.841000000000000192e+00 -1.072800000000000011e+02 -1.474624000000000024e+01 -3.634361457385965610e-01
1.291799999999999926e+01 1.176399999999999890e+00 -1.092600000000000051e+02 3.051697999999999911e-01 -2.995346515521808417e-01
1.291900000000000048e+01 -1.796099999999999852e+01 -5.629699999999999704e+01 -7.537887999999999700e+00 -2.882214343909504928e-01
1.291900000000000048e+01 -1.666799999999999926e+01 -5.447699999999999676e+01 -1.375211000000000006e+01 -2.924908913510265718e-01
1.291999999999999993e+01 -2.240200000000000102e+01 -6.437399999999999523e+01 1.112638000000000016e+00 -2.989788670912113533e-01
1.291999999999999993e+01 -2.219300000000000139e+01 -6.363799999999999812e+01 -1.796687999999999896e-01 -2.852255408480777743e-01
1.292200000000000060e+01 4.119699999999999918e+00 -1.018900000000000006e+02 -1.941729000000000038e+00 -3.634749426004359463e-01
1.292200000000000060e+01 4.119699999999999918e+00 -1.003599999999999994e+02 -1.400187999999999988e+01 -3.634972185812455070e-01
1.292999999999999972e+01 9.209899999999999309e+00 -9.387000000000000455e+01 1.604742999999999853e+01 -2.590193234611350981e-01
1.293099999999999916e+01 -1.248700000000000010e+01 -7.570399999999999352e+01 -5.735623999999999612e+00 -3.007213036558017971e-01
1.293200000000000038e+01 -6.400599999999999623e-01 -5.568200000000000216e+01 2.251719999999999899e+01 -2.727992135386926309e-01
1.293200000000000038e+01 8.591400000000000148e-01 -5.663000000000000256e+01 1.615401999999999916e+01 -2.803026966298418632e-01
1.293399999999999928e+01 -2.209900000000000020e+01 -6.688800000000000523e+01 4.207982000000000111e-01 -2.989371580374936554e-01
1.293599999999999994e+01 9.671400000000000219e+00 -7.199500000000000455e+01 -1.832757000000000147e+01 -2.640383385176457987e-01
1.294200000000000017e+01 -1.396000000000000085e+01 -7.391500000000000625e+01 -2.001848999999999990e+00 -3.007327042272562312e-01
1.294299999999999962e+01 -5.457900000000000418e+00 -5.399099999999999966e+01 1.733981999999999957e+01 -2.339778919630134540e-02
1.294500000000000028e+01 4.718600000000000350e+00 -1.064699999999999989e+02 -1.157424999999999926e+01 -3.634420458241343077e-01
1.294999999999999929e+01 -4.803700000000000081e+00 -9.262199999999999989e+01 -1.299475999999999942e+01 -2.996427705622829452e-01
1.294999999999999929e+01 -3.938499999999999890e+00 -9.262199999999999989e+01 -8.276832999999999885e+00 -2.996105381028610903e-01
1.295100000000000051e+01 -3.009300000000000086e+00 -9.362800000000000011e+01 -1.385774999999999979e+00 -2.995770568187766658e-01
1.295100000000000051e+01 -2.238500000000000156e+01 -6.577100000000000080e+01 4.103947000000000012e-01 -2.988903448065409196e-01
1.296499999999999986e+01 1.139000000000000057e+01 -7.616899999999999693e+01 -1.505546999999999969e+01 -2.628830250209974184e-01
1.296499999999999986e+01 1.139000000000000057e+01 -7.530299999999999727e+01 -1.693843000000000032e+01 -2.632331616005835206e-01
1.296899999999999942e+01 3.883300000000000196e+00 -9.814100000000000534e+01 1.034224999999999994e+01 -3.635080749861723803e-01
1.296899999999999942e+01 4.092399999999999594e+00 -9.740500000000000114e+01 1.217360000000000042e+01 -3.635206953644324335e-01
1.297499999999999964e+01 -1.061899999999999977e+01 -5.382999999999999829e+01 1.175675999999999988e+01 -3.770143469568529304e-01
1.297600000000000087e+01 -4.445999999999999730e+00 -8.568699999999999761e+01 -2.350324000000000080e+00 -2.996646401445318686e-01
1.298000000000000043e+01 -2.653000000000000025e+00 -1.060600000000000023e+02 9.851200999999999652e+00 -2.995930999492555369e-01
1.298499999999999943e+01 3.671499999999999986e+00 -1.022099999999999937e+02 -2.333597000000000143e+00 -3.634552201855949516e-01
1.298799999999999955e+01 -8.801399999999999224e+00 -8.349800000000000466e+01 -1.950293999999999972e+00 -2.999710003236378819e-01
1.299600000000000044e+01 -6.993700000000000472e-01 -8.881199999999999761e+01 -3.347542999999999935e+00 -2.993751853776997485e-01
1.299799999999999933e+01 6.341899999999999871e+00 -6.420699999999999363e+01 -1.477726999999999968e+01 7.342537098735483223e-05
1.299799999999999933e+01 7.876999999999999780e+00 -6.377100000000000080e+01 -2.237649000000000044e+01 -2.861300348099082760e-03
1.300399999999999956e+01 1.106900000000000084e+01 -7.747700000000000387e+01 -5.057719999999999771e+00 -2.622586090697616723e-01
1.300799999999999912e+01 -5.107099999999999973e+00 -9.332200000000000273e+01 -5.138487999999999722e+00 -2.996519326523761073e-01
1.301299999999999990e+01 1.059200000000000053e+01 -7.300799999999999557e+01 -9.113053000000000736e+00 -2.639126460141832387e-01
1.301399999999999935e+01 9.688299999999999912e+00 -7.001800000000000068e+01 9.804937999999999709e-01 -2.652200788855980651e-01
1.301399999999999935e+01 9.688299999999999912e+00 -6.896800000000000352e+01 6.302124000000000059e+00 1.959422357568051283e-03
1.301699999999999946e+01 -1.138799999999999990e+01 -5.375699999999999790e+01 -2.652314000000000060e+00 -3.766597035451104136e-01
1.301900000000000013e+01 4.985899999999999999e+00 -6.379999999999999716e+01 -1.240657000000000032e+01 3.142681496129691616e-03
1.302200000000000024e+01 -1.520800000000000018e+01 -5.439000000000000057e+01 -1.876946999999999921e+00 -3.109739622568939432e-01
1.302599999999999980e+01 -7.106099999999999639e-01 -8.792799999999999727e+01 -7.951793000000000333e+00 -2.993182759845016139e-01
1.303100000000000058e+01 9.942700000000000315e+00 -6.346600000000000108e+01 7.587434000000000012e+00 -3.307881551166753226e-03
1.303100000000000058e+01 1.099300000000000033e+01 -6.346600000000000108e+01 8.796120999999999412e+00 -3.349364460362708965e-03
1.303400000000000070e+01 8.612999999999999545e+00 -8.432200000000000273e+01 4.473105999999999582e+00 -2.597499423770316396e-01
1.303400000000000070e+01 -9.858900000000000219e+00 -8.217300000000000182e+01 -2.475457000000000019e+00 -3.000931375646790911e-01
1.303500000000000014e+01 2.798700000000000188e+00 -6.300399999999999778e+01 4.938956000000000301e+01 -2.771744081232996870e-01
1.303999999999999915e+01 9.936299999999999244e+00 -7.823499999999999943e+01 -1.197189999999999976e+01 -2.615362799917661518e-01
1.304299999999999926e+01 3.368100000000000094e+00 -1.029099999999999966e+02 1.030300999999999911e+00 -3.634367739861855684e-01
1.304499999999999993e+01 -8.444100000000000605e+00 -8.430100000000000193e+01 -2.074171999999999905e+00 -2.999248743846404941e-01
1.304499999999999993e+01 -7.436899999999999622e+00 -8.530800000000000693e+01 -2.572731999999999797e+00 -2.998398194307591580e-01
1.304700000000000060e+01 -1.455100000000000060e+00 -1.051200000000000045e+02 4.010714000000000112e+00 -2.995651345829911660e-01
1.304899999999999949e+01 -1.994499999999999940e+00 -9.602700000000000102e+01 1.304505999999999943e+01 -2.995484154650361330e-01
1.304899999999999949e+01 -1.994499999999999940e+00 -9.455500000000000682e+01 -8.220159000000000216e-01 -2.995448513134295054e-01
1.304899999999999949e+01 -1.785400000000000098e+00 -9.529099999999999682e+01 1.870233000000000034e+00 -2.995401489095947944e-01
1.304899999999999949e+01 -2.055499999999999883e+00 -5.556799999999999784e+01 1.357316999999999929e+01 -2.617955155454356753e-01
1.305499999999999972e+01 -9.309500000000000552e-01 -8.717400000000000659e+01 -4.579927999999999777e+00 -2.992950799633070647e-01
1.305599999999999916e+01 1.092099999999999937e+01 -6.620399999999999352e+01 3.433285000000000142e+00 -2.231278223318655727e-04
1.305799999999999983e+01 9.587300000000000821e+00 -6.814799999999999613e+01 5.060595000000000176e+00 1.535012870065905052e-03
1.306700000000000017e+01 9.396800000000000708e+00 -8.023000000000000398e+01 8.758525000000000560e+00 -2.607810640261226109e-01
1.306700000000000017e+01 9.396800000000000708e+00 -7.936499999999999488e+01 -4.349798000000000275e-01 -2.609912731585768975e-01
1.307099999999999973e+01 8.120100000000000762e+00 -9.490200000000000102e+01 3.453323000000000143e+00 -2.586854898814586190e-01
1.307399999999999984e+01 3.499000000000000110e+00 -1.038199999999999932e+02 8.339588999999999475e-01 -3.634326908932724587e-01
1.307499999999999929e+01 -1.276600000000000001e+01 -7.479500000000000171e+01 -1.230456000000000039e+01 -3.008024703155223745e-01
1.307600000000000051e+01 4.095500000000000362e+00 -6.340299999999999869e+01 1.176962999999999937e+01 -2.796496337681528832e-01
1.308200000000000074e+01 -1.662300000000000111e+00 -1.023499999999999943e+02 -1.570850000000000080e+00 -2.995595171495567532e-01
1.308500000000000085e+01 -5.009999999999999787e+00 -1.086099999999999994e+02 2.787401000000000018e+00 -2.996466914552416982e-01
1.308699999999999974e+01 3.792400000000000215e+00 -9.960800000000000409e+01 2.482298999999999811e+00 -3.634955638831877112e-01
1.308900000000000041e+01 -2.416799999999999837e+00 -8.973900000000000432e+01 -3.135202000000000044e+00 -2.995539765795828258e-01
1.308999999999999986e+01 -6.945000000000000284e+00 -5.289000000000000057e+01 4.224770000000000181e+01 -3.783068778225064377e-01
1.309099999999999930e+01 9.871299999999999741e+00 -6.642499999999999716e+01 4.767907000000000117e+00 2.071342904199940829e-04
1.309099999999999930e+01 -1.416699999999999982e+01 -8.179200000000000159e+01 -2.978149000000000157e+00 -3.000006719930312094e-01
1.309099999999999930e+01 -1.264700000000000024e+01 -8.179200000000000159e+01 -4.284675000000000011e+00 -3.002006000773652650e-01
1.309600000000000009e+01 1.219200000000000017e+01 -6.539100000000000534e+01 -1.087523999999999935e+00 -1.075231201665910160e-03
1.310699999999999932e+01 3.720800000000000107e+00 -1.045799999999999983e+02 3.946896999999999878e+00 -3.634341752552159299e-01
1.310699999999999932e+01 -1.403299999999999947e+01 -7.888299999999999557e+01 -2.676289999999999836e+00 -3.002099835407057160e-01
1.310800000000000054e+01 -4.913599999999999746e+00 -5.487100000000000222e+01 6.186176999999999815e+00 -3.319120574722433242e-02
1.310899999999999999e+01 -1.434099999999999930e+01 -7.300900000000000034e+01 1.463802999999999910e-01 -3.008222389620637816e-01
1.311599999999999966e+01 -1.710900000000000176e+01 -7.015200000000000102e+01 1.943332999999999977e+00 -3.005625523321959758e-01
1.311700000000000088e+01 -1.369999999999999929e+01 -7.795499999999999829e+01 2.853392000000000150e-01 -3.003450930638159599e-01
1.311800000000000033e+01 -8.048400000000000887e+00 -9.345000000000000284e+01 -3.727739999999999942e-01 -2.997621365245449199e-01
1.311800000000000033e+01 -2.055300000000000082e+01 -6.889499999999999602e+01 -2.191340999999999983e-01 -2.995009043383151659e-01
1.312100000000000044e+01 -2.222500000000000142e+01 -6.197999999999999687e+01 -3.551836999999999911e+00 -2.844956089759215212e-01
1.313000000000000078e+01 -2.227400000000000091e+01 -6.298499999999999943e+01 -3.962307000000000023e+00 -2.848503050133480707e-01
1.313100000000000023e+01 -3.672200000000000131e+00 -9.344599999999999795e+01 -2.706714999999999982e+00 -2.996001563239222842e-01
1.313499999999999979e+01 -6.048300000000000232e+00 -8.620099999999999341e+01 -2.716930000000000067e+00 -2.997462006539621804e-01
1.314300000000000068e+01 4.789499999999999869e-01 -1.100999999999999943e+02 3.958968000000000043e+00 -2.995507210067558379e-01
1.314499999999999957e+01 3.814299999999999802e+00 -9.870699999999999363e+01 7.500436999999999799e+00 -3.635038710865555744e-01
1.314899999999999913e+01 9.567899999999999849e+00 -6.712500000000000000e+01 3.252075000000000049e+00 9.730880280769153498e-04
1.315399999999999991e+01 7.435999999999999943e+00 -8.518899999999999295e+01 1.636390000000000011e+00 -2.591975493929145613e-01
1.315600000000000058e+01 -5.378800000000000026e+00 -1.050000000000000000e+02 3.365739000000000036e+00 -2.996505124895964545e-01
1.315900000000000070e+01 1.186299999999999955e+01 -6.615099999999999625e+01 1.999751000000000056e+00 -1.885081867725213228e-04
1.316000000000000014e+01 1.769099999999999895e+00 -6.138900000000000290e+01 1.547558000000000078e+01 -2.760037580014531033e-01
1.316000000000000014e+01 1.978199999999999958e+00 -6.212500000000000000e+01 4.021983000000000175e+01 -2.758449510475772248e-01
1.316000000000000014e+01 1.978199999999999958e+00 -6.065299999999999869e+01 -4.619266000000000205e-01 -2.775669274993207147e-01
1.316000000000000014e+01 2.927000000000000046e+00 -5.970400000000000063e+01 -6.575552000000000064e+00 2.714096906533923492e-03
1.316000000000000014e+01 2.927000000000000046e+00 -5.810600000000000165e+01 -1.063644999999999996e+01 -2.405333291885229478e-03
1.316000000000000014e+01 3.153999999999999915e+00 -5.890500000000000114e+01 -1.922966999999999871e+01 -6.987873477715719327e-04
1.316200000000000081e+01 -2.192800000000000082e+01 -6.797400000000000375e+01 2.815217999999999887e-01 -2.990711149133814528e-01
1.316300000000000026e+01 4.959100000000000286e+00 -9.667600000000000193e+01 5.077683000000000391e+00 -3.635510401530346880e-01
1.316900000000000048e+01 -8.228500000000000369e+00 -9.077800000000000580e+01 -1.357415999999999956e+00 -2.997964360098268610e-01
1.317300000000000004e+01 -2.134600000000000009e+01 -6.041499999999999915e+01 6.241317999999999699e+00 -2.843390153976557699e-01
1.317900000000000027e+01 2.426400000000000112e+00 -1.086899999999999977e+02 1.250079000000000029e+01 -2.995106491320950193e-01
1.317999999999999972e+01 -3.013700000000000045e+00 -8.568600000000000705e+01 -4.165600000000000414e+00 -2.994842486206258925e-01
1.318800000000000061e+01 -1.603500000000000014e+01 -7.123399999999999466e+01 2.238915000000000077e+01 -3.007277080447591233e-01
1.318999999999999950e+01 9.477899999999999991e+00 -7.120499999999999829e+01 -1.136439000000000021e+01 -2.642084986681602632e-01
1.319100000000000072e+01 -2.115800000000000125e+01 -5.798400000000000176e+01 1.066873000000000005e+01 -2.827383883165872080e-01
1.319200000000000017e+01 -5.081100000000000172e+00 -8.920600000000000307e+01 -5.040637000000000256e+01 -2.996699052161478916e-01
1.319800000000000040e+01 6.418000000000000149e+00 -9.658299999999999841e+01 7.983063000000000242e-01 -3.635687586219459866e-01
1.319999999999999929e+01 -3.910800000000000054e+00 -8.974699999999999989e+01 -5.418484000000000123e+01 -2.996160192410829981e-01
1.320299999999999940e+01 -1.680199999999999960e+01 -5.523499999999999943e+01 -2.519837000000000060e+01 -2.903362784493979665e-01
1.320400000000000063e+01 1.010399999999999920e+01 -7.269499999999999318e+01 -2.451085000000000136e+01 -2.637082271072601070e-01
1.320500000000000007e+01 1.008500000000000085e+01 -9.052400000000000091e+01 1.385621000000000080e+01 -2.594092329284119480e-01
1.320599999999999952e+01 -6.801700000000000301e+00 -8.831799999999999784e+01 -9.391075000000000728e+00 -2.997591722294526972e-01
1.320899999999999963e+01 -1.122799999999999976e+01 -8.143099999999999739e+01 -1.515306999999999960e+01 -3.002327411469100094e-01
1.321000000000000085e+01 -1.228800000000000026e+01 -1.022399999999999949e+02 5.351429999999999687e+00 -2.997113412080828487e-01
1.321599999999999930e+01 -3.446000000000000174e+00 -5.522200000000000131e+01 -5.235487000000000002e+00 -3.618795066848701780e-01
1.321700000000000053e+01 -4.371100000000000207e+00 -9.332200000000000273e+01 -5.383664999999999701e+00 -2.996252854614733785e-01
1.322600000000000087e+01 8.858999999999999986e+00 -8.968699999999999761e+01 2.182332999999999856e+01 -2.591571128202486696e-01
1.323199999999999932e+01 -4.959500000000000242e+00 -9.387699999999999534e+01 -3.115587000000000106e+00 -2.996452078018408960e-01
1.323700000000000010e+01 7.647700000000000387e+00 -9.576000000000000512e+01 -1.474749000000000088e+00 -2.585071690808032896e-01
1.324099999999999966e+01 1.525800000000000045e+00 -5.714300000000000068e+01 -9.889518000000000697e+00 -2.821618960253709507e-01
1.324099999999999966e+01 3.915500000000000203e+00 -1.055199999999999960e+02 1.868128000000000011e+00 -3.634374063971307356e-01
1.325000000000000000e+01 -6.760299999999999976e+00 -1.070499999999999972e+02 2.301172000000000217e+00 -2.996819735847169319e-01
1.325000000000000000e+01 -6.760299999999999976e+00 -1.060000000000000000e+02 1.485999000000000070e+00 -2.996820835959400631e-01
1.325099999999999945e+01 -6.753999999999999559e+00 -1.035499999999999972e+02 9.299159000000000175e-01 -2.996831899510802311e-01
1.325099999999999945e+01 -2.144200000000000017e+01 -5.917399999999999949e+01 9.241638000000000019e+00 -2.833827307299933707e-01
1.325999999999999979e+01 8.644600000000000506e+00 -6.370499999999999829e+01 -1.553852000000000011e+01 -2.269207021537526184e-03
1.326500000000000057e+01 1.019299999999999962e+01 -9.335899999999999466e+01 -2.179641999999999864e-03 -2.591913055003873811e-01
1.326900000000000013e+01 -1.457399999999999984e+01 -7.209900000000000375e+01 1.176582999999999934e+01 -3.009339936518577452e-01
1.326999999999999957e+01 -8.015700000000000713e+00 -8.922899999999999920e+01 -2.941948000000000008e+00 -2.998065723915568359e-01
1.327500000000000036e+01 -8.048000000000000043e+00 -5.348199999999999932e+01 2.005332999999999899e+01 -3.782348575146650682e-01
1.327599999999999980e+01 -1.892299999999999827e+01 -6.889499999999999602e+01 1.001511000000000040e+00 -3.002004467907658514e-01
1.327800000000000047e+01 -9.918699999999999406e+00 -5.377100000000000080e+01 9.633526999999999418e+01 -3.774872834814380629e-01
1.327899999999999991e+01 -1.215600000000000058e+01 -5.382300000000000040e+01 -8.178419999999999135e+00 -3.006232104203642175e-01
1.328100000000000058e+01 1.102500000000000036e+01 -7.370799999999999841e+01 -1.339994000000000085e+01 -2.636046808198363456e-01
1.328100000000000058e+01 1.172700000000000031e+01 -7.717700000000000671e+01 -4.331895000000000273e+00 -2.624864082840572821e-01
1.328599999999999959e+01 -3.505300000000000082e+00 -1.090300000000000011e+02 2.677891999999999939e+00 -2.996184014835771015e-01
1.328599999999999959e+01 -2.277099999999999902e+00 -1.097699999999999960e+02 4.066235999999999962e+00 -2.995976804524249637e-01
1.328599999999999959e+01 -8.309999999999999609e-01 -1.105799999999999983e+02 2.017860999999999905e+00 -2.995751644849196094e-01
1.328899999999999970e+01 1.175500000000000078e+01 -7.477200000000000557e+01 -9.181395000000000195e+00 -2.634092472617362013e-01
1.329599999999999937e+01 -3.526800000000000157e+00 -1.001899999999999977e+02 9.229591000000000323e-01 -2.996000142249706233e-01
1.329599999999999937e+01 -2.316799999999999926e+01 -6.577100000000000080e+01 1.011356999999999950e-01 -3.636161698696364075e-01
1.329800000000000004e+01 9.771300000000000097e+00 -8.214499999999999602e+01 6.156445999999999863e+00 -2.604146644772513675e-01
1.329800000000000004e+01 9.771300000000000097e+00 -8.109499999999999886e+01 8.124777999999999167e+00 -2.606285698360173986e-01
1.330300000000000082e+01 -9.092399999999999594e+00 -5.377199999999999847e+01 2.674802999999999997e+01 -3.778840542563400851e-01
1.330700000000000038e+01 1.036899999999999977e+01 -7.753499999999999659e+01 -8.441858999999999114e+00 -2.617973431229714265e-01
1.330799999999999983e+01 -5.300799999999999734e+00 -1.015799999999999983e+02 3.215395000000000003e+00 -2.996474285304856489e-01
1.331199999999999939e+01 -1.779100000000000037e+01 -6.965300000000000580e+01 1.898430999999999869e-01 -3.005014004223615642e-01
1.331799999999999962e+01 -2.290800000000000125e+01 -6.484799999999999898e+01 1.479168999999999956e+00 -2.850235363724962778e-01
1.333799999999999919e+01 -2.782700000000000173e+00 -1.012500000000000000e+02 -3.309721999999999942e-01 -2.995831823890992007e-01
1.333799999999999919e+01 -7.783900000000000041e+00 -9.390999999999999659e+01 -1.296740000000000115e-01 -2.997488269251896154e-01
1.333900000000000041e+01 -6.349000000000000199e+00 -9.470399999999999352e+01 -3.847885999999999806e-01 -2.996918662339947415e-01
1.334699999999999953e+01 -1.854599999999999937e+01 -5.674699999999999989e+01 1.394768999999999926e+00 -2.857673538750585829e-01
1.334900000000000020e+01 8.161400000000000432e+00 -8.853600000000000136e+01 5.120622999999999791e+01 -2.590240833252249741e-01
1.335100000000000087e+01 7.583099999999999952e+00 -8.674800000000000466e+01 2.508269999999999911e+01 -2.590118362027374888e-01
1.335100000000000087e+01 7.836999999999999744e+00 -8.764199999999999591e+01 2.516047000000000011e+01 -2.590068779509476782e-01
1.335200000000000031e+01 -1.596799999999999997e+01 -5.421000000000000085e+01 1.508105999999999947e+00 -3.085892365777270774e-01
1.335699999999999932e+01 -1.381999999999999895e+00 -5.542099999999999937e+01 4.609335999999999878e+00 -2.667274281833730276e-01
1.335899999999999999e+01 3.104399999999999937e-01 -5.549199999999999733e+01 6.353894000000000375e+00 -2.792510448346794405e-01
1.335899999999999999e+01 9.138299999999999201e+00 -8.347199999999999420e+01 7.723442000000000363e+00 -2.599327118620659016e-01
1.336700000000000088e+01 -2.279899999999999949e+01 -6.662099999999999511e+01 9.576710999999999974e-01 -3.635481209371839162e-01
1.337500000000000000e+01 -6.753999999999999559e+00 -1.006299999999999955e+02 4.019395000000000273e+00 -2.996871428888728262e-01
1.337899999999999956e+01 4.795499999999999652e+00 -6.346200000000000330e+01 -1.105207000000000050e+01 3.426132835897383565e-03
1.338599999999999923e+01 -1.273200000000000109e+00 -1.030199999999999960e+02 -2.051282000000000050e+00 -2.995533673631757265e-01
1.338599999999999923e+01 -1.064100000000000046e+00 -1.037600000000000051e+02 -8.604214000000000029e-01 -2.995517237302857128e-01
1.338599999999999923e+01 4.081000000000000405e+00 -1.085100000000000051e+02 -4.104818999999999996e+00 -3.634181562526285769e-01
1.339000000000000057e+01 9.482100000000000861e+00 -8.293899999999999295e+01 4.301828999999999681e+00 -2.601289963191987242e-01
1.339199999999999946e+01 4.879699999999999704e+00 -1.015900000000000034e+02 -4.285057000000000116e+00 -3.635144623603037695e-01
1.339199999999999946e+01 4.879699999999999704e+00 -1.006599999999999966e+02 -1.386294999999999966e+01 -3.635218551708482293e-01
1.340199999999999925e+01 4.583300000000000374e+00 -9.700799999999999557e+01 8.039298000000000499e+00 -3.635458727109461274e-01
1.341200000000000081e+01 -1.319999999999999929e+01 -7.420499999999999829e+01 -6.306089000000000055e+00 -3.008442950816504480e-01
1.341499999999999915e+01 -2.175700000000000145e+01 -6.123299999999999699e+01 4.055602999999999847e-01 -2.842418319065599941e-01
1.341699999999999982e+01 -9.399300000000000210e+00 -8.295199999999999818e+01 -2.077355999999999980e+00 -3.000305280595340629e-01
1.341900000000000048e+01 -1.477500000000000036e+01 -5.389900000000000091e+01 -3.072668999999999873e+00 -3.051591658757034642e-01
1.341900000000000048e+01 -8.129300000000000637e+00 -1.025999999999999943e+02 3.416631999999999891e+00 -2.997197543016897336e-01
1.341900000000000048e+01 -8.129300000000000637e+00 -1.015499999999999972e+02 7.336197000000000301e+00 -2.997226012344190726e-01
1.341900000000000048e+01 -5.378700000000000259e+00 -1.025999999999999943e+02 6.988997999999999600e+00 -2.996496695628096951e-01
1.341999999999999993e+01 -3.317299999999999915e+00 -9.776500000000000057e+01 4.859834000000000209e+00 -2.995908481634133036e-01
