2.057700000000000173e+01 -1.577399999999999913e+01 8.201700000000000657e+00 -1.391627000000000081e+01 -1.186624285277790847e-01
2.057799999999999940e+01 1.713100000000000023e+01 2.596399999999999864e+01 2.021681999999999846e+01 9.622203007825484711e-02
2.057799999999999940e+01 -1.200999999999999979e+01 4.349900000000000233e+01 -4.147561999999999749e+00 -3.196292999200965879e-01
2.057900000000000063e+01 3.333300000000000152e-01 2.510500000000000043e+01 -1.076392000000000060e+01 -1.115048718140821543e-01
2.058200000000000074e+01 2.632799999999999940e+01 3.791299999999999670e+01 2.238111999999999924e+01 -2.771529339034520256e-01
2.058200000000000074e+01 1.034900000000000020e+01 2.372100000000000009e+01 5.534000999999999948e+00 3.229552236766949913e-03
2.058399999999999963e+01 1.341799999999999926e+01 2.461400000000000077e+01 -7.380601999999999663e+00 3.951895758648699825e-02
2.058399999999999963e+01 1.660800000000000054e+01 5.177400000000000091e+01 7.600740000000000052e+00 -1.960712755713524269e-01
2.058599999999999852e+01 1.325099999999999945e+01 9.446199999999999264e+00 -4.101339000000000112e+01 -7.135525794992177151e-02
2.058800000000000097e+01 1.839000000000000057e+01 2.353399999999999892e+01 -2.195956999999999937e+01 -2.927086112895050940e-01
2.058800000000000097e+01 1.839000000000000057e+01 2.513200000000000145e+01 -7.775808000000000675e+01 7.585878936775930503e-02
2.058800000000000097e+01 1.861700000000000088e+01 2.433299999999999841e+01 -2.382670999999999850e+01 -2.925195676474802164e-01
2.058800000000000097e+01 -1.790300000000000002e+00 -2.524999999999999911e+00 -1.737480000000000047e+01 -3.638285375367126262e-01
2.058899999999999864e+01 -2.300900000000000034e+01 3.104500000000000171e+01 -8.928687999999999292e+00 -1.122694938169208345e-01
2.058999999999999986e+01 -2.446499999999999986e+01 2.899599999999999866e+01 -1.445354999999999990e+01 -1.133467879887092716e-01
2.058999999999999986e+01 2.299099999999999966e+01 4.557600000000000051e+01 -1.715502000000000038e+01 -1.914788708538313344e-01
2.059400000000000119e+01 -2.224299999999999855e+01 4.022699999999999676e+01 -1.201556000000000068e+00 -3.180893218913510845e-01
2.059700000000000131e+01 -2.039199999999999946e+01 2.085399999999999920e+01 -2.257369000000000181e+00 -1.169763888619591991e-01
2.059799999999999898e+01 -1.449099999999999966e+01 1.008500000000000085e+01 -3.406889999999999930e+01 -1.195922553745832617e-01
2.059900000000000020e+01 -1.864000000000000101e+00 5.447800000000000153e+01 1.084526999999999930e+01 6.584017891682328316e-02
2.060000000000000142e+01 -1.397600000000000087e+01 1.089499999999999957e+01 -4.801431000000000004e+00 -1.200406423278288087e-01
2.060000000000000142e+01 -1.311100000000000065e+01 9.494699999999999918e+00 -8.571750999999999676e-01 -1.193031626232117920e-01
2.060000000000000142e+01 -1.311100000000000065e+01 1.089499999999999957e+01 4.151385999999999576e+00 -1.200864439397467259e-01
2.060099999999999909e+01 -1.390199999999999925e+01 4.243399999999999750e+01 -1.297814999999999941e+00 -3.190634730311342482e-01
2.060200000000000031e+01 1.948199999999999932e+01 4.639300000000000068e+01 -1.127868999999999922e+01 -1.949971644531178216e-01
2.060300000000000153e+01 -9.529799999999999827e+00 -1.332999999999999963e+00 -1.343541000000000096e+00 -7.317639409411143270e-02
2.060600000000000165e+01 1.477999999999999936e+01 2.671300000000000097e+01 -5.620549999999999713e+00 8.476078343074129606e-02
2.060600000000000165e+01 1.742899999999999894e+00 5.598799999999999955e+01 4.663367000000000040e+00 -1.948863610767497812e-01
2.060800000000000054e+01 1.435399999999999920e+01 2.781700000000000017e+01 -1.690171000000000134e+01 8.153318018236743736e-02
2.061100000000000065e+01 -9.014400000000000190e+00 5.334799999999999898e+01 6.899547000000000097e+00 6.496667408843644076e-02
2.061400000000000077e+01 9.348900000000000432e+00 5.228300000000000125e+01 8.208444000000000074e+00 -1.963506088166051822e-01
2.061400000000000077e+01 4.440000000000000391e+00 1.044800000000000040e+01 2.132865999999999929e+01 1.042021420516668906e-01
2.061400000000000077e+01 9.027100000000000790e+00 3.888500000000000068e+00 -3.010613000000000206e+00 -2.696932977835458933e-01
2.061700000000000088e+01 -1.375799999999999912e+01 4.784000000000000341e+01 -1.906573000000000073e+00 -3.206442799894472229e-01
2.061700000000000088e+01 -1.375799999999999912e+01 5.029999999999999716e+01 -7.183601000000000347e+00 -2.770287063128094515e-02
2.061899999999999977e+01 -7.581000000000000405e+00 5.410399999999999920e+01 2.900758999999999865e+00 6.495458038271136048e-02
2.061899999999999977e+01 2.821499999999999986e+01 2.991400000000000148e+01 1.726297999999999888e+01 -2.666277416217085472e-01
2.062399999999999878e+01 -1.940800000000000125e+01 1.808899999999999864e+01 -2.373965999999999799e+00 -1.184661690595248534e-01
2.062900000000000134e+01 8.100000000000000533e-01 -1.354999999999999982e+00 -3.912930999999999937e+00 -2.684479800035745045e-01
2.062900000000000134e+01 2.286300000000000221e+00 -6.731000000000000316e-01 -3.646820000000000062e-01 -2.684390921321859191e-01
2.063200000000000145e+01 1.334800000000000075e+01 4.233400000000000318e+01 9.166534999999999656e+00 -1.965753257969274359e-01
2.063200000000000145e+01 -1.581700000000000017e+01 1.096599999999999930e+01 -3.119519999999999982e+01 -1.199716839461211632e-01
2.063400000000000034e+01 -1.677400000000000091e+01 1.859100000000000108e+01 4.611145999999999745e+00 -1.185613113948041641e-01
2.063400000000000034e+01 1.807300000000000040e+01 4.827199999999999847e+01 -2.487626999999999811e+00 -1.966080277539641041e-01
2.063599999999999923e+01 1.241499999999999915e+01 4.622099999999999653e+01 8.399971000000000743e+00 -1.981563212361762694e-01
2.063599999999999923e+01 1.328100000000000058e+01 4.622099999999999653e+01 1.453012999999999977e+01 -1.979659622428694421e-01
2.064099999999999824e+01 -1.152100000000000080e+01 5.201299999999999812e+01 4.978661999999999921e+00 6.500417318271718703e-02
2.064199999999999946e+01 1.175500000000000078e+01 5.199300000000000210e+01 8.699205999999999506e+01 -1.964646882672229644e-01
2.064399999999999835e+01 -1.133000000000000007e+01 4.456799999999999784e+01 3.004643000000000175e-01 -3.200821166797230832e-01
2.064699999999999847e+01 2.529100000000000037e+01 3.879599999999999937e+01 1.596202000000000076e+01 -2.816678623453737762e-01
2.065200000000000102e+01 1.610800000000000054e+01 2.603500000000000014e+01 2.177661000000000158e+01 9.274139249783107386e-02
2.065200000000000102e+01 -2.449699999999999989e+01 2.468199999999999861e+01 -6.454653000000000418e+00 -1.151574981820566029e-01
2.065299999999999869e+01 5.452200000000000379e+00 2.198900000000000077e+01 1.707822000000000173e+01 -1.210688065552536080e-01
2.065599999999999881e+01 -1.090099999999999980e+01 -1.227800000000000002e+00 1.207348999999999961e+01 -7.431087315139002503e-02
2.065599999999999881e+01 -1.418800000000000061e+01 9.384999999999999787e+00 -1.969492999999999938e+01 -1.192261688731990343e-01
2.066199999999999903e+01 1.213400000000000034e+01 2.386299999999999955e+01 -5.479627999999999943e+00 1.745131602490988462e-02
2.066199999999999903e+01 2.110099999999999909e+01 2.855300000000000082e+01 -3.428103999999999818e+00 -3.169329783660362887e-01
2.066199999999999903e+01 5.224999999999999645e+00 -2.320300000000000029e+00 6.679734999999999978e-01 -2.682301471626294953e-01
2.066600000000000037e+01 9.704900000000000304e+00 5.286800000000000210e+01 1.032850999999999964e+01 -1.960105784688985220e-01
2.066700000000000159e+01 4.976399999999999935e+00 5.121399999999999864e+01 1.556048000000000009e+01 7.046421755165244161e-02
2.066799999999999926e+01 1.974399999999999977e+01 4.562500000000000000e+01 -1.274404000000000003e+01 -1.941818745739330998e-01
2.067099999999999937e+01 1.301999999999999957e+01 6.550900000000000389e+00 1.731931000000000109e+00 -2.729285407157734378e-01
2.067299999999999827e+01 -5.148800000000000043e-01 5.567799999999999727e+01 9.203286999999999551e+00 6.566485695584167726e-02
2.067299999999999827e+01 3.274999999999999911e+00 5.153300000000000125e+01 2.127746000000000137e+01 6.934871234378764404e-02
2.067599999999999838e+01 -1.833500000000000085e+01 2.246300000000000097e+01 1.044992000000000054e+01 -1.161560115916372843e-01
2.067599999999999838e+01 -1.833500000000000085e+01 2.472800000000000153e+01 -8.263365999999999545e+00 -1.148340407405704366e-01
2.067699999999999960e+01 -9.866300000000000736e+00 1.229200000000000070e+00 -2.739145000000000163e+00 -7.649423214081059463e-02
2.069500000000000028e+01 1.358399999999999963e+01 4.552100000000000080e+01 1.081034000000000006e+01 -1.976616928930825245e-01
2.069900000000000162e+01 1.828699999999999903e+01 2.851300000000000168e+01 4.607687000000000310e+00 -3.130355895322781690e-01
2.069900000000000162e+01 2.442099999999999937e+01 4.009700000000000131e+01 -1.661308999999999969e+01 -1.785405910610516900e-01
2.069900000000000162e+01 -1.659900000000000020e+01 3.891000000000000014e+00 -2.113719999999999821e+00 -1.168472951922786274e-01
2.069900000000000162e+01 -1.659900000000000020e+01 5.591000000000000192e+00 1.521108000000000082e+01 -1.175325443147462040e-01
2.070700000000000074e+01 2.477700000000000102e+01 3.936500000000000199e+01 -8.334775999999999740e+00 -2.838283583361964624e-01
2.071300000000000097e+01 -1.099900000000000055e+01 -3.942899999999999738e-01 2.365591999999999828e+01 -7.532861827650677577e-02
2.071300000000000097e+01 -1.099900000000000055e+01 4.709499999999999797e-01 6.410790000000000077e+01 -7.631397515395063613e-02
2.071300000000000097e+01 -8.733700000000000685e+00 -3.942899999999999738e-01 -1.544278000000000084e+01 -7.375476803509181667e-02
2.071399999999999864e+01 1.210299999999999976e+01 4.443099999999999739e+01 -1.364929000000000059e+00 -1.977502188319212872e-01
2.071399999999999864e+01 1.210299999999999976e+01 4.583100000000000307e+01 5.517902000000000307e+00 -1.980698472897991780e-01
2.071399999999999864e+01 -1.059800000000000075e+01 -1.927799999999999958e+00 7.376858999999999611e+00 -7.344185699718305815e-02
2.071499999999999986e+01 -2.006099999999999994e+01 4.229899999999999949e+01 1.474127999999999972e+01 -3.186328388531768363e-01
2.071600000000000108e+01 -1.668400000000000105e+01 -1.966800000000000104e+00 -4.022994999999999877e+00 -7.693914320949907237e-02
2.071600000000000108e+01 -1.647500000000000142e+01 -2.702799999999999869e+00 -8.535408999999999580e+00 -7.621458171534097048e-02
2.071699999999999875e+01 -1.658500000000000085e+01 5.527100000000000346e-01 -1.188518999999999970e+01 -7.921975102442824213e-02
2.071699999999999875e+01 -1.737099999999999866e+01 -9.652300000000000324e+00 -1.337714999999999987e+00 -3.637782738437461694e-01
2.071699999999999875e+01 -1.573300000000000054e+01 -9.652300000000000324e+00 -1.008989000000000047e+01 -3.637781298497864690e-01
2.071699999999999875e+01 -1.634100000000000108e+01 4.373100000000000165e+01 4.564057999999999726e-01 -3.192327062746741495e-01
2.071900000000000119e+01 3.827900000000000080e+00 5.511599999999999966e+01 5.830601000000000056e+01 -1.951653044487881572e-01
2.072200000000000131e+01 -2.447899999999999920e+01 2.799299999999999855e+01 -1.800193000000000154e+01 -1.137422776118752477e-01
2.072400000000000020e+01 -2.461400000000000077e+01 2.719600000000000151e+01 -3.701077999999999690e+01 -1.140883061047165831e-01
2.072599999999999909e+01 1.944000000000000128e+01 4.492499999999999716e+01 -8.266239999999999810e+00 -1.937816375512339262e-01
2.072700000000000031e+01 -2.047599999999999909e+01 2.438599999999999923e+01 -5.642365999999999993e+00 -1.151172834802598188e-01
2.072700000000000031e+01 -1.907600000000000051e+01 2.212000000000000099e+01 1.791047999999999973e+01 -1.163232423346375055e-01
2.073400000000000176e+01 1.682799999999999940e+01 2.860600000000000165e+01 -6.642565999999999748e-02 -1.851036297993783053e-01
2.073400000000000176e+01 1.612300000000000111e+01 4.106000000000000227e+01 7.835501999999999967e+00 -1.932041037246412241e-01
2.073400000000000176e+01 1.731400000000000006e+01 4.172399999999999665e+01 2.438982999999999901e+00 -1.925561070867016222e-01
2.073400000000000176e+01 1.752299999999999969e+01 4.246000000000000085e+01 -1.184411000000000058e+01 -1.931852847152889796e-01
2.073400000000000176e+01 1.775000000000000000e+01 4.325900000000000034e+01 -7.949696999999999569e+00 -1.937929092615282567e-01
2.073499999999999943e+01 -7.316500000000000226e-01 1.257400000000000073e+00 -3.885876000000000108e+00 -2.688803683896267560e-01
2.073600000000000065e+01 5.468700000000000117e+00 2.534600000000000009e+01 2.627611999999999726e-01 -1.070268557189215236e-01
2.073699999999999832e+01 1.824699999999999989e+01 5.097599999999999909e+01 6.126134999999999664e+00 -1.965711806192747546e-01
2.073900000000000077e+01 -2.176000000000000156e+01 3.279200000000000159e+01 -7.288449000000000177e-01 -1.112481006522598043e-01
2.074399999999999977e+01 8.160600000000000520e+00 1.248900000000000077e+01 -2.045661000000000129e+01 9.788823084798994878e-02
2.074500000000000099e+01 -1.407699999999999996e+01 -7.318100000000000271e+00 1.957264999999999944e+01 -3.638046325175767759e-01
2.074899999999999878e+01 -1.540799999999999947e+01 4.273899999999999721e+01 4.097048000000000023e+00 -3.190231642595194872e-01
2.074899999999999878e+01 2.563400000000000034e+01 2.968700000000000117e+01 3.978457999999999828e+00 -2.733283065310248006e-01
2.075199999999999889e+01 -2.194200000000000017e+01 3.846500000000000341e+01 -2.874156999999999851e+00 -1.091642920836650293e-01
2.075199999999999889e+01 -7.503999999999999559e+00 -2.157000000000000028e+00 -1.973833000000000126e+01 -3.638686795911523220e-01
2.075499999999999901e+01 -3.778000000000000025e+00 -1.552399999999999891e-01 -5.877904000000000018e+00 -3.638865476637215268e-01
2.075499999999999901e+01 -5.458000000000000185e+00 -3.360300000000000065e+00 -1.779759000000000091e+00 -3.638399374038305267e-01
2.075499999999999901e+01 -6.676000000000000156e+00 5.381000000000000227e+01 2.355954999999999799e+00 6.530354161628373899e-02
2.075799999999999912e+01 2.071300000000000097e+01 4.569299999999999784e+01 -1.311148000000000025e+01 -1.933285684480304800e-01
2.075900000000000034e+01 3.960999999999999854e+00 9.823999999999999844e+00 2.320457000000000036e+01 1.056303006814988954e-01
2.075900000000000034e+01 3.960999999999999854e+00 1.122400000000000020e+01 3.773113000000000028e+01 -1.203980123649318196e-01
2.075900000000000034e+01 1.154899999999999949e+01 5.280499999999999972e+01 1.033432999999999957e+01 -1.959916869615679347e-01
2.076099999999999923e+01 2.258999999999999897e+00 2.976699999999999946e+01 -1.637772000000000006e+01 -9.798428227808804458e-02
2.076099999999999923e+01 3.658999999999999808e+00 2.976699999999999946e+01 4.693020999999999887e+00 -9.516055783487156750e-02
2.076200000000000045e+01 -8.947599999999999554e+00 1.087499999999999911e+00 -1.305522000000000027e+01 -7.579587726608469356e-02
2.076800000000000068e+01 8.902900000000000702e+00 2.457199999999999918e+01 4.200385999999999953e+00 1.425427990009059485e-03
2.076899999999999835e+01 1.549900000000000055e+00 4.267699999999999605e+00 8.219917999999999836e+00 -2.693783462967763720e-01
2.076999999999999957e+01 -1.696799999999999997e+01 4.740999999999999659e+00 2.531693999999999889e-01 -1.172073229548849238e-01
2.077199999999999847e+01 -8.484299999999999287e+00 3.779500000000000082e-01 -1.962790000000000035e+01 -7.457255710153619377e-02
2.077199999999999847e+01 1.179899999999999949e+01 4.513100000000000023e+01 1.864962000000000009e+00 -1.979276770040771793e-01
2.077299999999999969e+01 2.159299999999999997e+01 2.868900000000000006e+01 2.332104999999999873e-01 -3.164017324887422600e-01
2.077400000000000091e+01 1.301600000000000001e+01 5.166599999999999682e+01 1.620429999999999993e+01 -1.966961239388058946e-01
2.077400000000000091e+01 1.441600000000000037e+01 5.166599999999999682e+01 5.580263000000000417e+00 -1.965743439191971753e-01
2.077499999999999858e+01 6.939000000000000057e+00 5.075500000000000256e+01 -8.945334000000000785e+00 -1.973137230529768416e-01
2.077799999999999869e+01 9.338400000000000034e+00 5.369700000000000273e+01 1.573831999999999987e+01 -1.956142770298950062e-01
2.077899999999999991e+01 -3.099000000000000199e+00 4.701900000000000190e+00 3.238738999999999812e+00 1.093087900811229723e-01
2.078200000000000003e+01 -1.670799999999999841e+01 -4.024000000000000021e+00 -3.007572000000000134e+00 -7.532521711200942938e-02
2.078200000000000003e+01 -1.649899999999999878e+01 -3.287900000000000045e+00 -2.010256000000000043e+00 -7.579604780408642772e-02
2.078399999999999892e+01 1.950300000000000011e+01 2.803699999999999903e+01 -2.015871000000000191e+00 -3.182381685343130817e-01
2.078399999999999892e+01 3.491999999999999993e+00 5.434100000000000108e+01 1.840552999999999884e+01 -1.954856262618590856e-01
2.078399999999999892e+01 3.491999999999999993e+00 5.589099999999999824e+01 1.831721999999999895e+01 -1.949208045763445307e-01
2.078399999999999892e+01 -1.919300000000000139e+01 2.512999999999999901e+01 -5.210370000000000168e+00 -1.146326987797507274e-01
2.079100000000000037e+01 -4.910599999999999632e+00 6.030499999999999750e-01 -1.743580000000000041e+01 -7.193081857920144428e-02
2.079100000000000037e+01 -4.910599999999999632e+00 1.468299999999999939e+00 -1.740444000000000102e+01 -7.318673687112474402e-02
2.079299999999999926e+01 -2.767500000000000071e+00 -3.164800000000000058e+00 -3.868586000000000080e+00 -3.638205526535288614e-01
2.079400000000000048e+01 2.284199999999999875e+01 2.949399999999999977e+01 -1.945991999999999944e+00 -2.734370285123143285e-01
2.079799999999999827e+01 2.146300000000000097e+01 4.593200000000000216e+01 -1.708492999999999995e+01 -1.928815565674638355e-01
2.080300000000000082e+01 -1.498799999999999955e+01 3.174100000000000144e+00 -4.912507999999999875e+00 -8.149818039014807003e-02
2.080999999999999872e+01 -1.932999999999999829e+01 4.316799999999999926e+01 3.908040999999999876e+00 -3.188785176580962721e-01
2.080999999999999872e+01 2.743499999999999872e+01 3.693900000000000006e+01 -4.103365000000000151e+00 -3.891785565802047819e-01
2.081200000000000117e+01 -1.526200000000000045e+01 2.332599999999999785e+00 8.767104999999999482e-01 -8.063958767001802586e-02
2.081200000000000117e+01 2.029100000000000126e+00 3.564000000000000057e+00 1.327585999999999977e+01 -2.692453508169261878e-01
2.081200000000000117e+01 -8.793799999999999173e+00 -1.332999999999999963e+00 -9.823385999999999285e+00 -7.284566094486592813e-02
2.081400000000000006e+01 2.871799999999999908e+00 2.350000000000000000e+01 4.037589999999999790e+00 -1.149623899139079058e-01
2.081400000000000006e+01 3.879000000000000004e+00 2.249299999999999855e+01 1.103415999999999997e+01 -1.182556304311531969e-01
2.081400000000000006e+01 -1.545100000000000051e+01 1.409399999999999986e+00 2.935204000000000146e+00 -7.970691792069838078e-02
2.081500000000000128e+01 -1.487500000000000000e+01 1.133900000000000041e+01 -3.090189000000000075e+00 -1.201815283237017973e-01
2.081700000000000017e+01 1.508999999999999986e+01 2.781700000000000017e+01 -3.650189000000000128e+00 8.922771192197491430e-02
2.082300000000000040e+01 -1.730600000000000094e+01 -4.593099999999999739e+00 -4.106676000000000215e+00 -7.523169582050107107e-02
2.082400000000000162e+01 5.176000000000000156e+00 1.044800000000000040e+01 1.892808000000000135e+01 1.046017969913124179e-01
2.082700000000000173e+01 1.657799999999999940e+01 2.221600000000000108e+01 2.642562999999999995e+00 2.029250044640154918e-02
2.082799999999999940e+01 -1.795099999999999918e+00 1.853799999999999892e-01 -1.121790000000000020e+01 -3.638736061700447721e-01
2.082900000000000063e+01 -1.809499999999999886e+01 1.862399999999999878e+01 3.940119000000000149e+00 -1.183023707369669913e-01
2.083699999999999974e+01 1.476399999999999935e+01 2.348499999999999943e+01 3.121591000000000005e+00 3.460569776955560450e-02
2.084299999999999997e+01 1.064899999999999913e+01 5.549000000000000199e+01 3.573138000000000147e+00 -1.946517548277875709e-01
2.084600000000000009e+01 1.272199999999999953e+01 9.674099999999999255e+00 -3.269010999999999711e+01 -7.226444089002365123e-02
2.084799999999999898e+01 -2.367200000000000060e+01 3.052299999999999969e+01 -2.387572000000000116e+01 -1.125586658430906828e-01
2.085099999999999909e+01 -2.129299999999999926e+01 3.557500000000000284e+01 2.724978000000000122e+01 -1.099801612367377474e-01
2.085900000000000176e+01 -2.268199999999999861e+01 2.434900000000000020e+01 -6.846919999999999895e+00 -1.151960484750788050e-01
2.085999999999999943e+01 -1.790500000000000114e+01 4.454599999999999937e+01 1.382705999999999946e+01 -3.193153105122262247e-01
2.086100000000000065e+01 -2.181099999999999994e+01 4.092699999999999960e+01 4.549115999999999715e+00 -3.182513209651561259e-01
2.086100000000000065e+01 -1.529199999999999982e+01 3.874099999999999877e+00 -9.517946000000000240e+00 -1.166914800324300866e-01
2.086299999999999955e+01 1.471199999999999974e+01 4.538300000000000267e+01 4.537086000000000396e+00 -1.970168178161791073e-01
2.086499999999999844e+01 1.826399999999999935e+01 4.917600000000000193e+01 -7.663230999999999682e+00 -1.965221790764921372e-01
2.086599999999999966e+01 1.007900000000000063e+01 1.026399999999999935e+01 -1.450862000000000052e+01 -7.282681029499209202e-02
2.086599999999999966e+01 1.126900000000000013e+01 9.600099999999999412e+00 -2.209239000000000175e+01 -7.173923499045778418e-02
2.086799999999999855e+01 2.089300000000000157e+00 1.051500000000000057e+01 2.284605000000000175e+01 -1.194866483041613775e-01
2.086899999999999977e+01 -1.591300000000000026e+01 1.288199999999999967e+01 9.533440999999999832e+00 -1.208543183008176786e-01
2.087000000000000099e+01 1.725700000000000012e+00 2.863999999999999879e+00 5.491579999999999906e+00 -2.691386123701688393e-01
2.087099999999999866e+01 1.161200000000000010e+00 5.099899999999999878e+00 1.198110999999999926e+01 2.247511053418987589e-02
2.087300000000000111e+01 -2.349200000000000088e+01 2.885399999999999920e+01 -2.499996000000000151e+01 -1.132331966740257601e-01
2.087500000000000000e+01 2.367599999999999838e+01 4.314900000000000091e+01 1.179429999999999978e+01 -1.869117566618248572e-01
2.087500000000000000e+01 1.803600000000000136e+01 2.301300000000000168e+01 -2.480278999999999900e+00 -2.911503317271800229e-01
2.087699999999999889e+01 1.294299999999999962e+01 2.384600000000000009e+01 -3.821495000000000086e+00 2.484764962221954615e-02
2.087800000000000011e+01 9.307399999999999451e+00 1.173900000000000077e+01 -1.237906000000000084e+01 1.383610448400831271e-02
2.087900000000000134e+01 -2.189099999999999824e+01 3.791299999999999670e+01 -1.623866999999999949e+00 -1.093130938070013547e-01
2.087900000000000134e+01 -1.532499999999999929e+01 6.110999999999999766e+00 -2.426341999999999943e-01 -1.176521483429692483e-01
2.087999999999999901e+01 -2.399599999999999866e+01 2.975499999999999901e+01 -3.645803000000000083e+01 -1.129215868768005393e-01
2.088100000000000023e+01 6.838000000000000078e+00 2.114099999999999824e+01 1.041513999999999953e+02 -1.979783413800764030e-02
2.088299999999999912e+01 9.394999999999999574e+00 5.464999999999999858e+01 1.551248999999999967e+01 -1.951724260713365022e-01
2.088299999999999912e+01 1.190300000000000047e+01 5.369200000000000017e+01 -4.551452000000000275e+00 -1.954830711590509196e-01
2.088299999999999912e+01 1.190300000000000047e+01 5.464999999999999858e+01 -2.944977999999999832e-02 -1.949539688140007054e-01
2.088299999999999912e+01 7.590000000000000080e-01 5.614200000000000301e+01 7.091465999999999603e-01 6.593003505956615551e-02
2.088599999999999923e+01 2.401499999999999968e+00 5.610999999999999943e+01 6.627696000000000254e+00 -1.949136034645631566e-01
2.088700000000000045e+01 -1.682199999999999918e+01 4.440299999999999869e+01 1.814179999999999904e+00 -3.193671399565523039e-01
2.088800000000000168e+01 1.838599999999999923e+01 5.021500000000000341e+01 1.281393000000000004e+00 -1.966608547754079284e-01
2.088899999999999935e+01 9.383699999999999264e+00 2.375100000000000122e+01 3.599920000000000009e+00 -3.532137785722924738e-04
2.089199999999999946e+01 4.288699999999999735e-01 2.141599999999999948e+00 3.518651999999999891e+00 -2.690506670048059545e-01
2.089499999999999957e+01 1.506700000000000017e+01 2.278500000000000014e+01 9.174056000000000433e-01 2.471822348545183248e-02
2.089499999999999957e+01 -2.145899999999999963e+01 3.700099999999999767e+01 3.089577999999999935e+00 -1.094938192373009489e-01
2.089699999999999847e+01 -2.161599999999999966e+01 3.633299999999999841e+01 2.092219000000000051e+01 -1.097820051495103089e-01
2.089900000000000091e+01 1.291499999999999915e+01 4.303399999999999892e+01 6.763798000000000421e+00 -1.967763717989253203e-01
2.089999999999999858e+01 2.846499999999999986e+01 3.275000000000000000e+01 2.380382000000000176e+01 -2.560628277370552985e-01
2.090099999999999980e+01 -1.634100000000000108e+01 1.789099999999999824e+01 -7.261178999999999828e-01 -1.189567820680472454e-01
2.090299999999999869e+01 1.603999999999999915e+01 4.614500000000000313e+01 -3.992579000000000100e+00 -1.966328483064418431e-01
2.090299999999999869e+01 4.861100000000000421e+00 9.703300000000000480e+00 2.136326999999999998e+01 1.068953940973278172e-01
2.090399999999999991e+01 1.284800000000000075e+01 4.552100000000000080e+01 6.581966999999999679e+00 -1.976427198857524659e-01
2.090500000000000114e+01 9.811999999999999389e+00 5.884100000000000108e+00 -1.830404000000000053e+01 -2.711898869894798780e-01
2.091300000000000026e+01 8.242900000000000560e+00 5.152600000000000335e+01 -9.636639999999999873e+00 -1.969487085480312039e-01
2.091400000000000148e+01 8.863599999999999923e+00 5.305599999999999739e+01 8.759619999999999962e+00 -1.960434158590077802e-01
2.091600000000000037e+01 -1.251900000000000013e+01 4.660900000000000176e+01 8.394580999999999849e-01 -3.204979514627144255e-01
2.091900000000000048e+01 1.567500000000000071e+01 2.673499999999999943e+01 1.806937000000000015e+00 9.130621006751550583e-02
2.092200000000000060e+01 1.438899999999999935e+01 4.192900000000000205e+01 1.175469000000000008e+01 -1.953094232925234874e-01
2.092599999999999838e+01 2.392700000000000049e+00 9.814899999999999736e+00 2.651385000000000147e+01 -1.183611459245004494e-01
2.092599999999999838e+01 -1.078800000000000026e+01 5.276800000000000068e+01 -4.194223000000000035e+00 6.509507206444460625e-02
2.092599999999999838e+01 -1.141499999999999915e+01 -5.174400000000000333e+00 1.510575000000000001e+00 -3.638271525043980659e-01
2.092800000000000082e+01 -2.205300000000000082e+01 3.921600000000000108e+01 -3.156668999999999947e+00 -1.089385060208195588e-01
2.092999999999999972e+01 7.034400000000000375e-02 5.574200000000000266e+00 1.605967000000000056e+01 1.113754494771014986e-01
2.093100000000000094e+01 -2.379599999999999937e+01 2.815399999999999991e+01 -2.173429000000000144e+01 -1.135621975452254517e-01
2.094099999999999895e+01 2.842400000000000038e+00 5.223299999999999699e+01 1.626836000000000126e+01 6.896309528301357294e-02
2.094099999999999895e+01 2.842400000000000038e+00 5.309899999999999665e+01 1.556535000000000046e+01 6.834487292727722818e-02
2.094099999999999895e+01 8.679399999999999338e+00 5.125799999999999912e+00 -1.375412000000000035e+01 -2.705000037053227335e-01
2.094099999999999895e+01 2.431500000000000128e+01 3.019099999999999895e+01 3.993773000000000017e+00 -3.782113808366326380e-01
2.094200000000000017e+01 -1.083900000000000086e+00 -2.202700000000000102e+00 -2.204982000000000042e+01 -3.638138544382359396e-01
2.094200000000000017e+01 -2.496699999999999875e+01 2.544200000000000017e+01 -1.327652999999999928e+01 -1.148084794082343957e-01
2.094200000000000017e+01 -2.496699999999999875e+01 2.638200000000000145e+01 -2.952552999999999983e+01 -1.144187233544195353e-01
2.094600000000000151e+01 7.173899999999999721e+00 2.036599999999999966e+01 1.533485999999999905e+00 -2.181410748085196513e-02
2.095100000000000051e+01 -1.253800000000000026e+01 4.281700000000000017e+01 -2.543225000000000069e+00 -3.193152415667226407e-01
2.095100000000000051e+01 -6.674500000000000099e+00 -2.348700000000000010e+00 -5.135819999999999830e+00 -3.638575182766811689e-01
2.095400000000000063e+01 2.410200000000000120e+00 1.145199999999999996e+01 2.517158999999999835e+01 -1.208772839061845461e-01
2.095499999999999829e+01 -1.416499999999999915e+01 7.004699999999999704e+00 1.249934999999999974e+01 -1.179871343690691576e-01
2.095499999999999829e+01 -1.416499999999999915e+01 7.870000000000000107e+00 -5.783443000000000112e+00 -1.184114685989958310e-01
2.095499999999999829e+01 -2.334499999999999797e+00 5.362700000000000244e+01 1.779902999999999835e+01 6.645862523905844699e-02
2.095599999999999952e+01 1.595400000000000063e+01 5.185600000000000165e+01 6.718982999999999706e+00 -1.963374711598177558e-01
2.095799999999999841e+01 -2.084600000000000009e+01 4.197999999999999687e+01 8.560254999999999725e+00 -3.185209189775232153e-01
2.096099999999999852e+01 -1.284200000000000053e+01 -6.077700000000000102e+00 2.581240000000000201e+00 -3.638157826290242536e-01
2.096199999999999974e+01 1.649899999999999878e+01 4.710900000000000176e+01 -1.270748000000000033e+01 -1.966722645237710121e-01
2.096300000000000097e+01 -1.213700000000000045e+01 5.120300000000000296e+01 2.029786000000000001e+01 -1.935962333441987593e-01
2.096900000000000119e+01 -1.625100000000000122e+01 8.855999999999999872e+00 -1.741491999999999862e+01 -1.189128479903435454e-01
2.096900000000000119e+01 -1.625100000000000122e+01 1.037599999999999945e+01 -3.492647000000000190e+01 -1.196154429804090202e-01
2.097100000000000009e+01 8.546300000000000452e+00 5.222599999999999909e+01 3.470701000000000036e+00 -1.965505856822266639e-01
2.098000000000000043e+01 -1.056600000000000072e+01 1.171000000000000041e+00 1.051357999999999926e+01 -7.716264153590257635e-02
2.098100000000000165e+01 6.902899999999999814e+00 1.959900000000000020e+01 4.299928000000000083e-01 -2.435246227444436140e-02
2.098100000000000165e+01 1.253500000000000014e+01 4.513100000000000023e+01 5.156579999999999941e+00 -1.975449651259386652e-01
2.098300000000000054e+01 4.616600000000000037e+00 -1.594300000000000050e+00 3.340460000000000207e+00 -2.685068865949493122e-01
2.098499999999999943e+01 1.250300000000000011e+01 2.353500000000000014e+01 3.069683000000000273e-01 1.788606407843431126e-02
2.099200000000000088e+01 7.036400000000000432e+00 1.662999999999999901e+01 1.960762000000000072e+01 -3.150829774116188642e-02
2.099599999999999866e+01 1.286000000000000032e+00 2.811100000000000065e+01 -1.648871000000000109e+01 -1.031459989478788752e-01
2.099599999999999866e+01 2.050899999999999945e-01 2.737800000000000011e+01 -2.126642000000000010e+01 -1.059978204051255091e-01
2.099699999999999989e+01 4.032399999999999984e+00 5.148700000000000188e+01 2.329989000000000132e+01 7.017762109037141427e-02
2.099699999999999989e+01 -1.354400000000000048e+01 1.138599999999999923e+01 1.686848000000000170e+01 -1.202573257106890753e-01
2.099699999999999989e+01 1.314799999999999969e+01 4.496399999999999864e+01 6.441703000000000401e+00 -1.973048745492581579e-01
2.099800000000000111e+01 -9.460899999999999865e-01 5.519700000000000273e+01 1.205654999999999966e+01 6.610708823502527143e-02
2.100199999999999889e+01 9.839100000000000179e+00 1.075399999999999956e+01 -1.223719000000000001e+01 -7.399100488578183588e-02
2.100199999999999889e+01 -1.164299999999999891e+00 5.574299999999999811e-01 -9.729392999999999958e+00 -2.689505035170112746e-01
2.100400000000000134e+01 3.135099999999999998e+00 5.351800000000000068e+01 1.556535000000000046e+01 6.823988623409817100e-02
2.100700000000000145e+01 -1.705499999999999972e+01 -1.146700000000000053e+00 -1.690722999999999843e+01 -7.803465285520676253e-02
2.100700000000000145e+01 -1.705499999999999972e+01 -2.072900000000000020e-01 -2.331597999999999971e+01 -7.889228870253403580e-02
2.101099999999999923e+01 -3.666699999999999959e-01 2.623799999999999955e+01 -1.729003000000000156e+01 -1.089240107254504375e-01
2.101099999999999923e+01 -1.575799999999999979e-01 2.550199999999999889e+01 -1.737968000000000046e+01 -1.104206629093908709e-01
2.101099999999999923e+01 -1.575799999999999979e-01 2.697400000000000020e+01 -1.988293000000000177e+01 -1.071845642957813399e-01
2.101300000000000168e+01 -1.761299999999999955e+01 -9.033099999999999241e+00 -7.006630999999999609e+00 -3.637806786974543405e-01
2.101300000000000168e+01 -1.548199999999999932e+01 -9.033099999999999241e+00 -9.616125999999999507e+00 -3.637806780786800309e-01
2.101399999999999935e+01 -4.756000000000000227e+00 5.357900000000000063e+01 -1.345608000000000004e+01 6.597280222600282462e-02
2.101500000000000057e+01 5.016499999999999737e+00 1.133799999999999919e+01 5.265646999999999878e+01 -1.202872660621805423e-01
2.102100000000000080e+01 -1.429700000000000060e+01 -7.995899999999999785e+00 -6.555324000000000151e-01 -3.637919815440403548e-01
2.102199999999999847e+01 -2.251800000000000068e+01 3.144200000000000017e+01 -3.321556000000000175e+00 -1.119369009679612309e-01
2.102299999999999969e+01 9.823700000000000543e+00 2.298600000000000065e+01 3.992116000000000220e+00 -2.540422738899604342e-03
2.102299999999999969e+01 1.087400000000000055e+01 2.298600000000000065e+01 7.042154000000000025e+00 2.471835950939987262e-03
2.102299999999999969e+01 1.078700000000000081e+01 5.828000000000000291e+00 -8.269005999999999190e+00 -2.716623275842159346e-01
2.102299999999999969e+01 1.183699999999999974e+01 5.828000000000000291e+00 -3.819193999999999978e+00 -2.721364136451481786e-01
2.102400000000000091e+01 -1.607400000000000162e+01 4.740999999999999659e+00 -6.089654999999999596e+00 -1.171083716294196719e-01
2.102700000000000102e+01 -1.676000000000000156e+01 -1.024399999999999977e+01 -1.157319999999999904e+00 -3.637675800265766091e-01
2.102899999999999991e+01 1.826300000000000034e+00 2.906700000000000017e+01 -1.571288000000000018e+01 -1.001613822160799111e-01
2.102899999999999991e+01 4.091599999999999682e+00 2.906700000000000017e+01 8.129958000000000240e+00 -9.592252271810454423e-02
2.103099999999999881e+01 6.075000000000000178e+00 -2.391099999999999781e+00 8.288259999999999295e+00 -2.684692632768803655e-01
2.103200000000000003e+01 -1.657999999999999829e+01 9.615999999999999659e+00 -1.494201999999999941e+01 -1.192464787568807971e-01
2.103200000000000003e+01 -1.498199999999999932e+01 9.615999999999999659e+00 -9.785188999999999737e+01 -1.192733484873670369e-01
2.103200000000000003e+01 1.772599999999999909e+01 2.854100000000000037e+01 1.116911999999999905e+00 -3.123189964266968044e-01
2.103300000000000125e+01 -1.241099999999999959e+01 9.762000000000000455e+00 3.224057000000000173e+00 -1.193829338097952969e-01
2.103300000000000125e+01 -1.241099999999999959e+01 1.062700000000000067e+01 3.771783999999999804e+00 -1.198803625195963007e-01
2.103800000000000026e+01 7.206000000000000405e+00 -2.294000000000000039e+00 1.357134999999999980e+00 -2.685134065860644292e-01
2.103800000000000026e+01 8.524499999999999744e+00 -1.558899999999999952e+00 5.795790000000000219e+01 -2.686717977993681727e-01
2.103800000000000026e+01 8.756000000000000227e+00 -7.439999999999999947e-01 2.762685000000000102e+01 -2.688127408598331436e-01
2.103999999999999915e+01 1.760999999999999943e+01 5.174799999999999756e+01 6.073915000000000397e+00 -1.962101072942129265e-01
2.104200000000000159e+01 -1.853699999999999903e+01 -6.651799999999999713e+00 -1.292475000000000041e+00 -7.458557083945319133e-02
2.104400000000000048e+01 -1.445100000000000051e+01 1.211899999999999977e+01 2.527772999999999826e+01 -1.205734738451969823e-01
2.104500000000000171e+01 -1.609100000000000108e+01 -1.019899999999999984e+01 -1.740585999999999967e+00 -3.637674773846665266e-01
2.104500000000000171e+01 1.268100000000000005e+00 5.622399999999999665e+01 4.663367000000000040e+00 6.616754159599537444e-02
2.104700000000000060e+01 8.466300000000000381e+00 3.419999999999999929e+00 -4.914152999999999771e+00 -2.698555966959317320e-01
2.105099999999999838e+01 -1.022100000000000009e+01 -3.310599999999999987e+00 4.562228000000000172e+00 -3.638489029945853326e-01
2.105199999999999960e+01 5.863000000000000433e+00 5.113700000000000045e+01 -2.592941000000000162e+00 7.158243905546275709e-02
2.105300000000000082e+01 -1.375500000000000078e+01 8.894099999999999895e+00 -7.775609000000000215e+00 -1.189077418280769100e-01
2.105499999999999972e+01 4.440000000000000391e+00 1.199900000000000055e+01 1.956057999999999879e+02 -1.216311150330368768e-01
2.105600000000000094e+01 1.266200000000000081e+01 4.416299999999999670e+01 3.376590000000000202e+00 -1.971339732824991808e-01
2.105799999999999983e+01 1.785699999999999932e+01 2.556299999999999883e+01 -5.162169999999999703e+01 8.027111437846350117e-02
2.105799999999999983e+01 -4.477999999999999758e+00 -9.695299999999999752e-02 -2.612029000000000156e+00 -3.638816983679220018e-01
2.105799999999999983e+01 -4.477999999999999758e+00 2.168299999999999894e+00 -1.566417000000000037e+01 -7.427969733520484175e-02
2.105799999999999983e+01 -3.077999999999999847e+00 -9.695299999999999752e-02 -1.611144000000000176e+01 -3.638718982380039768e-01
2.105799999999999983e+01 -1.409999999999999964e+01 4.236200000000000188e+01 -1.297814999999999941e+00 -3.190041212797901093e-01
2.105799999999999983e+01 1.170100000000000051e+01 2.337199999999999989e+01 5.212978999999999807e-01 1.079651678208148544e-02
2.105999999999999872e+01 2.223100000000000165e+01 4.586599999999999966e+01 -2.972792000000000101e+01 -1.919286170236333411e-01
2.105999999999999872e+01 2.352400000000000091e+01 4.514500000000000313e+01 -1.738786999999999949e+01 -1.900751121149772405e-01
2.105999999999999872e+01 2.375100000000000122e+01 4.434599999999999653e+01 -2.456035999999999930e+01 -1.887685394543123785e-01
2.106099999999999994e+01 -2.249200000000000088e+01 3.998799999999999955e+01 -2.529465000000000074e+00 -3.180227753786671885e-01
2.106200000000000117e+01 4.714500000000000135e+00 2.227100000000000080e+01 6.893360999999999628e+00 -1.187978273004283575e-01
2.106500000000000128e+01 2.959000000000000075e+00 2.982499999999999929e+01 -4.000080999999999776e+00 -9.640067592912586469e-02
2.106500000000000128e+01 -2.217599999999999838e+01 3.222500000000000142e+01 3.361582999999999988e+00 -1.115274765436097687e-01
2.106599999999999895e+01 -1.567999999999999972e+01 5.313799999999999635e+00 -7.470629999999999882e+00 -1.173102340096551510e-01
2.107100000000000151e+01 8.631000000000000227e+00 8.274199999999999611e-02 5.575719999999999743e+01 -2.689789028290959783e-01
2.107199999999999918e+01 1.573199999999999932e+01 2.220400000000000063e+01 1.425723000000000074e+00 1.872891205336855297e-02
2.107199999999999918e+01 -1.986799999999999855e+01 1.861799999999999855e+01 -1.840924000000000005e+00 -1.180318178406210838e-01
2.107199999999999918e+01 6.907300000000000217e+00 1.758800000000000097e+01 2.166109000000000151e+01 -2.925252362215990248e-02
2.107199999999999918e+01 -1.530899999999999928e+01 8.802699999999999747e+00 -9.752817999999999543e+00 -1.188708944009879281e-01
2.107400000000000162e+01 -1.801699999999999946e+01 -7.460899999999999643e+00 -1.289771999999999919e+00 -3.637959407515730659e-01
2.107400000000000162e+01 -1.780799999999999983e+01 -8.196899999999999409e+00 -8.357548000000000199e-01 -3.637884833170929033e-01
2.107499999999999929e+01 8.135699999999999932e+00 1.453999999999999915e+01 -3.745322999999999958e+00 -1.279508413755426899e-01
2.107700000000000173e+01 1.371599999999999930e+01 5.160799999999999699e+01 1.059421000000000035e+01 -1.968508860400600136e-01
2.107900000000000063e+01 -1.529899999999999949e+01 1.041300000000000026e+01 -1.846220999999999890e+01 -1.196500872825881495e-01
2.107900000000000063e+01 -1.842699999999999960e+01 -5.700300000000000367e+00 -4.596935000000000215e+00 -7.517592849708523706e-02
2.107999999999999829e+01 2.578200000000000003e+01 3.839900000000000091e+01 1.383198999999999934e+01 -2.801694064441580534e-01
2.108099999999999952e+01 3.446400000000000130e+00 2.319300000000000139e+01 1.059436000000000000e+01 -1.154942990841355543e-01
2.108299999999999841e+01 -1.441000000000000059e+00 5.049000000000000377e+00 1.834666999999999959e+01 1.102185247335934343e-01
2.108699999999999974e+01 -1.451800000000000068e+01 4.907000000000000028e+01 -2.544274000000000147e+00 -3.208004242445817722e-01
2.108699999999999974e+01 -1.429100000000000037e+01 4.827100000000000080e+01 -2.546753999999999962e+00 -3.206465144054380656e-01
2.108699999999999974e+01 -1.429100000000000037e+01 4.986899999999999977e+01 -9.341267999999999461e+00 -3.210156339198065867e-01
2.108699999999999974e+01 -1.334200000000000053e+01 4.732200000000000273e+01 -1.651969999999999938e+00 -3.205523670078768150e-01
2.108800000000000097e+01 -1.849299999999999855e+01 2.507100000000000151e+01 -9.786986000000000629e+00 -1.145446707410830711e-01
2.108899999999999864e+01 1.494500000000000028e+01 2.227599999999999980e+01 -2.284358999999999973e-01 1.684548986113122357e-02
2.109100000000000108e+01 -9.539999999999999147e+00 1.587900000000000089e+00 -1.076196999999999981e+01 -7.719280934074340683e-02
2.109600000000000009e+01 -2.132600000000000051e+01 2.431500000000000128e+01 -4.320364999999999789e+00 -1.151095482584799379e-01
2.109600000000000009e+01 1.653500000000000014e+01 2.654500000000000171e+01 1.017350000000000065e+01 9.214057047012218227e-02
2.109700000000000131e+01 -2.067499999999999893e+00 -3.106500000000000039e+00 -1.226112000000000002e+01 -3.638042541044635980e-01
2.109700000000000131e+01 1.659299999999999997e+00 2.855399999999999849e+01 -3.667112999999999801e+01 -1.015520266484418316e-01
2.110000000000000142e+01 -8.106299999999999173e+00 5.350800000000000267e+01 2.357892000000000099e+00 6.542459320307783543e-02
2.110000000000000142e+01 2.682400000000000162e+01 3.051000000000000156e+01 1.109360000000000035e+01 -2.875676950908906404e-01
2.110000000000000142e+01 2.769000000000000128e+01 3.051000000000000156e+01 1.196454999999999913e+01 -2.982161178113388322e-01
2.110000000000000142e+01 2.873999999999999844e+01 3.051000000000000156e+01 9.697158999999999196e+00 -2.670594596411458577e-01
2.110000000000000142e+01 2.873999999999999844e+01 3.221000000000000085e+01 5.174539999999999651e+01 -2.593330719254977046e-01
2.110200000000000031e+01 8.500099999999999767e+00 9.899700000000000166e-01 5.508066999999999780e+01 -2.691893355947891364e-01
2.110900000000000176e+01 -1.784400000000000119e+01 2.285900000000000176e+01 -1.420538999999999996e+00 -1.158133640393604613e-01
2.110900000000000176e+01 -1.784400000000000119e+01 2.433099999999999952e+01 -1.502913000000000032e+01 -1.149338407990854183e-01
2.110900000000000176e+01 -1.763500000000000156e+01 2.359499999999999886e+01 -1.035007000000000055e+01 -1.153685149617143385e-01
2.111100000000000065e+01 -1.587299999999999933e+01 6.911699999999999511e-01 -1.194781000000000049e+01 -7.936003455197901402e-02
2.111400000000000077e+01 2.420700000000000074e+01 4.098700000000000188e+01 -7.023475000000000357e+00 -1.813308641514171093e-01
2.111599999999999966e+01 6.806300000000000239e+00 1.840800000000000125e+01 1.375407000000000046e+01 -2.716923756293287973e-02
2.111799999999999855e+01 8.834699999999999775e+00 2.569999999999999840e+00 4.750615999999999950e+00 -2.696939169804622449e-01
2.111899999999999977e+01 7.973900000000000432e+00 4.160000000000000142e+00 7.335705999999999616e-01 -2.701160091283760223e-01
2.112399999999999878e+01 2.368399999999999839e+00 2.431099999999999994e+01 9.895509999999999806e+00 -1.122403269400518988e-01
2.112399999999999878e+01 -7.670300000000000118e+00 5.959999999999999742e-01 -6.563697999999999588e+00 -7.465538269095516044e-02
2.112600000000000122e+01 1.242599999999999927e+00 2.282000000000000028e+00 -1.148810000000000109e+00 -2.691947860179471630e-01
2.112699999999999889e+01 2.986299999999999955e+00 -4.057200000000000251e-01 9.731906000000000168e-01 -2.687514768407285315e-01
2.112699999999999889e+01 4.177299999999999791e+00 -1.069700000000000095e+00 9.073316000000000159e-01 -2.686585286782279258e-01
2.112999999999999901e+01 2.674899999999999878e+01 3.785600000000000165e+01 1.604948999999999870e+01 -2.766679704599767087e-01
2.112999999999999901e+01 -1.071100000000000030e+01 -4.432699999999999640e+00 1.187279999999999891e+00 -3.638321940856719672e-01
2.112999999999999901e+01 1.639499999999999957e+01 2.811499999999999844e+01 2.399957000000000118e+00 -3.130332441166968627e-01
2.113299999999999912e+01 -1.755199999999999960e+01 1.861199999999999832e+01 -9.350545999999999580e-01 -1.182935947566059881e-01
2.113400000000000034e+01 1.356600000000000072e+01 8.339800000000000324e+00 -7.352930000000000632e+01 -7.058664813255727255e-02
2.113400000000000034e+01 -9.260400000000000631e+00 5.312400000000000233e+01 -8.246662999999999855e+00 6.537546831319535068e-02
2.113700000000000045e+01 1.947599999999999909e+01 4.424399999999999977e+01 -1.025056999999999974e+01 -1.925688604198518283e-01
2.113800000000000168e+01 7.897999999999999687e+00 5.182000000000000028e+01 -1.035663000000000000e+00 -1.968531292332880711e-01
2.114300000000000068e+01 -1.632400000000000162e+01 1.376999999999999957e+01 1.482261999999999968e+00 -1.210933690372257149e-01
2.114300000000000068e+01 -1.632400000000000162e+01 1.482000000000000028e+01 -1.324646999999999908e-01 -1.205689399260504169e-01
2.114300000000000068e+01 -2.144000000000000128e+01 3.348899999999999721e+01 -2.844997999999999916e+00 -1.108121220287322795e-01
2.114499999999999957e+01 1.337599999999999945e+01 2.314600000000000080e+01 -3.034045000000000214e-01 2.007985911951871635e-02
2.114499999999999957e+01 -1.991499999999999915e+01 2.510699999999999932e+01 -6.499170999999999587e+00 -1.146127246831334795e-01
2.114699999999999847e+01 -1.129800000000000004e+01 -1.660500000000000087e+00 -1.596373999999999960e+00 -7.459688542153450341e-02
2.114699999999999847e+01 -1.129800000000000004e+01 -7.540000000000000036e-01 -1.191246999999999945e+00 -7.554234179220561951e-02
2.114699999999999847e+01 -1.129800000000000004e+01 1.524600000000000122e-01 1.874662000000000006e+01 -7.654611438053213202e-02
2.114699999999999847e+01 -1.957000000000000028e+01 4.269599999999999795e+01 2.063693999999999917e+01 -3.187401283850314626e-01
2.114900000000000091e+01 -1.299799999999999933e+01 5.068800000000000239e+01 -3.104664999999999964e+01 -1.932566085890809748e-01
2.114900000000000091e+01 3.919900000000000162e+00 1.282300000000000040e+01 2.843027999999999977e+01 -1.231664588345650901e-01
2.114999999999999858e+01 6.009999999999999787e+00 2.151200000000000045e+01 8.616616000000000497e+01 -1.872141308510918284e-02
2.115399999999999991e+01 -4.000000000000000083e-02 1.720299999999999940e+00 1.901391999999999971e+00 -2.691460976810165495e-01
2.115399999999999991e+01 1.659999999999999920e+00 -1.030299999999999994e+00 -4.221210000000000129e+00 -2.687280833770319122e-01
2.115500000000000114e+01 2.028000000000000114e+01 4.520199999999999818e+01 -2.960358999999999963e+00 -1.927870020993955325e-01
2.115599999999999881e+01 3.528399999999999981e+00 9.333099999999999952e+00 2.235309000000000168e+01 1.059383335981124719e-01
2.115899999999999892e+01 8.543799999999999173e+00 1.741999999999999993e+00 1.823147000000000162e+01 -2.694389803348874457e-01
2.116100000000000136e+01 -1.595199999999999996e+01 1.571000000000000085e+01 -3.443292000000000019e+00 -1.201825297062564246e-01
2.116499999999999915e+01 -8.617499999999999716e+00 1.645599999999999952e+00 -1.138784000000000063e+01 -7.676765546171387955e-02
2.116499999999999915e+01 2.375799999999999912e+01 4.164500000000000313e+01 -5.500135000000000440e-01 -1.833794318462131645e-01
2.116499999999999915e+01 2.375799999999999912e+01 4.250999999999999801e+01 1.221705000000000041e+01 -1.853478417254046107e-01
2.116700000000000159e+01 1.682300000000000040e+01 4.132699999999999818e+01 8.618263000000000673e+00 -1.920648341904691025e-01
2.116700000000000159e+01 2.230499999999999972e+01 2.882700000000000173e+01 9.453460999999999670e-01 -3.161616317505939189e-01
2.117000000000000171e+01 -1.089499999999999913e+00 5.474799999999999756e+01 1.015903999999999918e+01 6.644884211880587588e-02
2.117099999999999937e+01 2.910900000000000176e+01 3.135999999999999943e+01 3.724271000000000242e+01 -2.645597827036668126e-01
